ncols         655
nrows         31
xllcorner     412461.89957
yllcorner     1302710.8706
cellsize      100
NODATA_value  -9999
1443 1490 1528 1599 1686 1732 1683 1602 1510 1416 1333 1259 1208 1164 1137 1129 1161 1209 1268 1321 1387 1457 1493 1554 1603 1661 1718 1758 1691 1663 1606 1557 1480 1384 1307 1260 1215 1177 1149 1107 1080 1056 1042 1039 1064 1075 1095 1121 1133 1134 1155 1158 1185 1219 1239 1258 1288 1359 1421 1405 1343 1315 1273 1226 1220 1224 1247 1270 1334 1387 1437 1493 1559 1595 1536 1515 1508 1486 1426 1370 1306 1215 1130 1064 1005 942 869 818 775 733 685 642 629 615 612 605 601 605 621 630 620 589 584 580 559 548 548 550 548 547 546 546 544 545 546 547 546 549 549 547 570 574 575 596 616 624 630 648 653 657 656 656 656 656 660 667 669 674 678 686 680 687 697 711 758 761 769 792 836 872 878 877 933 1005 1039 1090 1133 1174 1221 1254 1281 1301 1344 1405 1449 1493 1553 1612 1626 1648 1686 1692 1631 1592 1540 1505 1485 1488 1474 1411 1381 1378 1373 1370 1336 1302 1296 1298 1270 1253 1270 1290 1322 1364 1397 1451 1508 1569 1620 1655 1643 1586 1537 1509 1487 1479 1465 1427 1382 1320 1279 1236 1212 1197 1193 1186 1191 1198 1221 1258 1279 1277 1278 1298 1311 1320 1346 1350 1354 1391 1452 1441 1418 1444 1497 1540 1506 1456 1402 1350 1296 1268 1267 1295 1341 1381 1428 1468 1513 1563 1605 1620 1585 1542 1476 1421 1381 1344 1317 1247 1215 1159 1100 1046 997 959 940 932 919 907 896 889 886 882 877 881 878 877 877 877 879 886 897 906 918 926 938 952 968 993 1017 1039 1057 1073 1108 1113 1127 1138 1131 1124 1137 1195 1232 1257 1287 1316 1339 1355 1368 1401 1426 1389 1362 1346 1339 1330 1320 1309 1307 1307 1306 1307 1320 1355 1399 1371 1322 1280 1234 1168 1120 1054 1000 946 912 870 824 782 747 719 692 676 659 639 628 613 605 585 579 579 579 579 579 579 579 579 579 579 579 579 579 579 579 579 579 618 658 678 695 707 735 796 860 901 949 1002 1067 1133 1199 1260 1340 1410 1456 1430 1399 1398 1430 1496 1511 1479 1466 1462 1471 1474 1486 1508 1545 1608 1540 1479 1425 1369 1321 1276 1218 1168 1126 1074 1037 1003 987 1003 1032 1069 1114 1154 1234 1282 1331 1383 1391 1432 1436 1457 1462 1419 1344 1283 1263 1278 1296 1311 1255 1207 1179 1187 1164 1128 1109 1091 1077 1057 1037 1021 1002 995 979 945 938 972 1007 1031 1047 1059 1079 1108 1136 1170 1207 1266 1326 1376 1415 1429 1449 1396 1354 1311 1268 1241 1192 1150 1114 1069 1043 1020 987 992 1038 1067 1104 1135 1170 1209 1255 1300 1345 1410 1446 1491 1537 1577 1607 1673 1662 1619 1583 1543 1510 1470 1430 1391 1341 1282 1239 1194 1161 1125 1094 1062 1038 1010 952 935 922 907 931 949 958 965 971 987 991 993 996 999 1020 1015 1025 1048 1039 1055 1085 1124 1159 1197 1239 1294 1342 1389 1431 1468 1506 1501 1450 1427 1404 1412 1444 1495 1533 1565 1591 1535 1450 1386 1323 1260 1197 1129 1073 1024 989 953 922 897 873 848 817 786 773 769 761 736 728 727 722 717 711 694 672 646 621 596 577 566 559 556 557 559 562 566 574 582 589 598 605 622 655 700 729 761 786 804 824 845 875 905 940 978 1020 1076 1134 1197 1243 1260 1313 1374 1432 1497 1565 1591 1551 1466 1437 1356 1299 1267 1251 1243 1242 1250 1276 1300 1326 1364 1387 1390 1407 1415 1425 1447 1475 1494 1519 1548 1598 1746 1840 1813 1774 1736 1665 1635 1602
1436 1475 1523 1586 1682 1724 1688 1612 1519 1435 1351 1281 1216 1168 1147 1145 1177 1221 1260 1320 1383 1455 1508 1578 1607 1644 1705 1706 1633 1591 1574 1533 1456 1390 1305 1257 1216 1172 1141 1108 1072 1047 1039 1045 1082 1108 1129 1156 1165 1164 1174 1168 1189 1223 1237 1251 1270 1328 1398 1432 1357 1330 1322 1271 1235 1241 1247 1255 1308 1362 1419 1473 1534 1600 1589 1545 1539 1485 1420 1350 1281 1188 1111 1052 985 935 845 800 767 713 674 645 635 618 617 610 605 601 624 629 609 596 595 572 548 548 549 550 548 547 546 545 545 545 547 547 549 552 554 554 579 585 582 586 611 626 649 659 664 663 656 656 656 656 665 672 680 679 683 688 694 700 697 715 741 767 786 795 827 860 910 901 924 994 1043 1087 1151 1189 1219 1264 1295 1324 1358 1409 1472 1518 1566 1594 1591 1611 1659 1701 1662 1602 1569 1537 1511 1506 1477 1433 1412 1399 1398 1399 1394 1358 1330 1321 1291 1266 1264 1281 1306 1338 1379 1436 1489 1546 1601 1641 1636 1577 1531 1493 1477 1457 1434 1404 1372 1340 1294 1248 1215 1205 1198 1190 1191 1207 1222 1257 1302 1305 1290 1298 1325 1349 1376 1348 1348 1389 1448 1474 1476 1489 1549 1568 1516 1467 1415 1364 1321 1286 1274 1300 1334 1388 1440 1480 1524 1586 1631 1589 1548 1499 1431 1405 1358 1293 1250 1219 1153 1116 1060 1021 976 946 935 926 917 904 891 884 881 880 877 880 879 877 877 878 882 892 902 912 926 936 945 963 979 998 1035 1058 1082 1106 1128 1142 1157 1171 1164 1154 1130 1181 1229 1261 1293 1321 1337 1355 1375 1416 1450 1438 1394 1363 1356 1340 1333 1325 1316 1329 1325 1327 1346 1383 1384 1345 1299 1252 1200 1126 1093 1052 996 940 900 867 822 789 751 713 695 671 665 648 639 621 614 597 582 579 579 579 579 579 579 579 579 579 579 579 579 579 579 579 579 603 651 675 685 695 716 766 833 879 929 970 1022 1092 1141 1213 1285 1362 1444 1508 1478 1466 1476 1532 1555 1524 1501 1483 1485 1488 1503 1532 1578 1618 1548 1489 1429 1378 1333 1281 1222 1170 1127 1071 1035 1008 994 1005 1034 1062 1120 1168 1221 1289 1342 1406 1443 1452 1481 1494 1463 1408 1337 1305 1332 1353 1358 1316 1251 1214 1208 1209 1183 1135 1116 1099 1081 1067 1050 1033 1012 999 988 962 939 955 997 1022 1041 1053 1067 1096 1119 1156 1197 1265 1318 1374 1428 1467 1462 1426 1382 1335 1300 1247 1213 1166 1131 1091 1055 1029 1003 987 1033 1060 1095 1128 1162 1201 1237 1285 1328 1378 1420 1467 1529 1592 1629 1703 1699 1632 1598 1564 1502 1458 1415 1375 1323 1263 1223 1183 1151 1113 1079 1046 1021 983 948 945 928 913 943 971 975 987 995 994 1013 1016 1018 1022 1036 1043 1038 1049 1074 1074 1080 1107 1139 1175 1220 1270 1315 1371 1406 1448 1486 1503 1470 1454 1438 1447 1478 1511 1566 1602 1585 1516 1418 1356 1300 1234 1193 1122 1071 1021 982 949 916 893 866 839 812 787 779 768 761 745 728 731 727 720 714 701 678 647 624 598 575 566 558 555 556 558 561 566 575 581 589 598 605 627 659 693 722 746 772 793 816 843 871 901 938 971 1012 1055 1098 1135 1182 1246 1301 1358 1411 1463 1498 1541 1609 1571 1514 1448 1365 1307 1272 1250 1251 1254 1285 1327 1370 1410 1417 1410 1445 1443 1452 1468 1483 1521 1562 1626 1696 1797 1816 1751 1712 1684 1610 1592 1575
1487 1504 1532 1616 1690 1683 1613 1548 1468 1403 1333 1272 1225 1194 1157 1158 1181 1215 1247 1292 1350 1414 1482 1524 1507 1576 1683 1673 1594 1531 1503 1480 1425 1360 1281 1238 1199 1156 1122 1093 1068 1043 1043 1058 1085 1123 1162 1207 1213 1200 1203 1185 1186 1218 1234 1246 1265 1300 1372 1450 1381 1341 1338 1328 1275 1262 1259 1262 1300 1340 1396 1458 1518 1570 1617 1611 1548 1477 1418 1356 1287 1192 1089 1036 969 902 834 780 745 699 661 640 639 619 609 607 606 603 616 623 618 605 582 561 548 551 550 551 549 548 546 545 545 546 548 548 553 558 557 557 604 604 587 594 615 639 665 668 673 662 656 656 656 656 656 672 692 689 692 689 709 712 707 729 737 764 797 810 835 869 924 928 945 1006 1056 1103 1161 1193 1218 1269 1305 1337 1369 1405 1456 1508 1534 1545 1553 1556 1617 1677 1685 1620 1593 1561 1535 1519 1472 1455 1441 1425 1422 1442 1443 1389 1370 1353 1313 1286 1271 1276 1293 1312 1346 1397 1446 1501 1552 1607 1637 1597 1556 1507 1475 1457 1434 1418 1391 1340 1284 1243 1217 1208 1200 1192 1194 1209 1218 1249 1316 1366 1350 1336 1341 1383 1410 1381 1349 1373 1435 1478 1516 1552 1587 1575 1515 1469 1413 1365 1327 1294 1279 1311 1350 1402 1462 1500 1545 1591 1600 1557 1516 1482 1417 1355 1350 1299 1230 1170 1112 1077 1034 997 966 934 927 920 913 901 887 880 877 877 877 877 877 877 877 879 890 898 907 916 928 946 955 970 989 1013 1052 1081 1109 1131 1139 1187 1194 1203 1188 1167 1150 1173 1227 1265 1301 1326 1343 1364 1388 1437 1481 1468 1429 1384 1369 1353 1346 1344 1349 1356 1376 1373 1391 1417 1377 1334 1286 1242 1182 1113 1055 1016 966 924 860 820 779 747 724 701 689 672 666 651 638 622 610 595 583 579 579 579 579 579 579 579 579 579 579 579 579 579 579 579 579 582 625 667 679 690 709 743 803 870 908 953 1004 1063 1127 1203 1291 1362 1441 1479 1541 1548 1545 1562 1610 1583 1558 1510 1496 1516 1525 1559 1599 1637 1571 1508 1447 1395 1345 1275 1208 1155 1111 1069 1031 1006 999 1020 1062 1079 1127 1190 1244 1292 1340 1388 1436 1472 1509 1524 1474 1413 1354 1351 1384 1415 1391 1317 1265 1242 1238 1247 1219 1168 1132 1112 1088 1074 1058 1040 1024 1007 995 969 946 958 996 1017 1039 1052 1065 1092 1120 1152 1198 1242 1300 1357 1408 1468 1493 1469 1427 1375 1329 1278 1239 1204 1159 1123 1085 1041 1022 993 1006 1058 1089 1122 1160 1200 1226 1271 1319 1363 1413 1470 1528 1595 1652 1699 1660 1622 1584 1549 1498 1446 1402 1360 1312 1253 1212 1174 1142 1110 1063 1034 1004 966 955 961 942 934 958 992 997 1012 1022 1021 1042 1049 1050 1050 1053 1063 1060 1061 1081 1097 1107 1122 1140 1169 1213 1261 1299 1342 1386 1420 1467 1503 1491 1468 1471 1479 1507 1533 1590 1589 1544 1489 1424 1344 1291 1223 1181 1119 1055 999 965 938 906 883 854 824 805 793 781 764 757 742 736 734 727 720 711 699 679 656 632 604 576 567 558 555 554 557 560 565 573 578 587 599 606 626 650 672 692 714 737 762 778 821 846 880 921 962 998 1029 1079 1139 1191 1243 1292 1346 1388 1430 1457 1519 1568 1603 1577 1503 1429 1361 1292 1275 1260 1260 1277 1324 1384 1437 1484 1497 1488 1565 1551 1541 1528 1636 1642 1695 1735 1771 1775 1705 1656 1623 1596 1577 1568
1557 1554 1571 1661 1688 1646 1580 1518 1428 1385 1336 1275 1232 1195 1159 1169 1192 1218 1247 1285 1339 1393 1438 1466 1505 1554 1625 1664 1599 1559 1501 1440 1407 1350 1283 1225 1187 1149 1117 1086 1064 1053 1056 1072 1102 1143 1206 1260 1270 1242 1230 1195 1188 1219 1228 1242 1257 1277 1318 1399 1426 1379 1358 1382 1354 1294 1280 1268 1308 1346 1394 1464 1526 1575 1615 1595 1540 1456 1387 1323 1260 1171 1081 1024 973 903 817 764 739 693 667 646 637 612 615 609 601 602 609 621 619 595 567 557 552 551 551 551 549 547 546 546 545 546 547 549 555 564 579 571 597 599 595 600 641 671 677 671 669 657 656 656 656 656 661 668 692 695 696 694 707 725 720 730 748 762 784 815 840 882 923 948 964 999 1053 1117 1178 1217 1241 1287 1325 1355 1388 1423 1434 1457 1478 1482 1499 1545 1581 1623 1638 1658 1624 1596 1571 1549 1496 1473 1477 1468 1469 1490 1471 1427 1405 1389 1356 1301 1285 1274 1285 1304 1342 1382 1424 1482 1532 1579 1609 1627 1603 1548 1496 1489 1463 1436 1400 1339 1288 1245 1225 1213 1204 1200 1199 1211 1222 1257 1329 1393 1412 1399 1404 1433 1439 1398 1371 1387 1459 1493 1521 1563 1618 1603 1545 1491 1442 1388 1339 1298 1287 1311 1352 1403 1468 1516 1570 1594 1540 1522 1472 1418 1391 1329 1288 1259 1202 1149 1074 1034 1000 969 947 931 923 916 909 899 886 879 877 877 877 877 877 877 877 883 897 906 916 928 940 957 971 985 1003 1034 1085 1122 1153 1187 1200 1237 1226 1225 1226 1208 1180 1162 1214 1260 1304 1326 1341 1367 1390 1433 1477 1510 1466 1425 1381 1367 1356 1356 1370 1401 1443 1451 1453 1418 1366 1300 1245 1207 1160 1110 1054 996 933 896 844 768 735 720 710 720 713 701 676 657 639 624 610 594 582 579 579 579 579 579 579 579 579 579 579 579 579 579 579 579 579 582 613 648 672 683 699 731 770 825 881 929 975 1036 1096 1173 1245 1315 1384 1454 1517 1597 1642 1636 1665 1652 1606 1557 1529 1561 1576 1600 1652 1639 1572 1504 1446 1390 1337 1290 1240 1181 1131 1079 1037 1009 1001 1022 1063 1106 1131 1178 1229 1275 1318 1358 1397 1439 1481 1521 1472 1417 1363 1403 1428 1427 1377 1313 1286 1286 1280 1273 1223 1182 1145 1118 1099 1086 1072 1058 1040 1020 1010 987 960 964 991 1012 1034 1048 1062 1085 1113 1144 1182 1230 1290 1357 1406 1457 1507 1492 1446 1388 1344 1287 1248 1218 1179 1138 1090 1066 1037 1012 1003 1043 1074 1106 1146 1183 1215 1260 1307 1348 1395 1448 1499 1557 1609 1659 1621 1594 1563 1531 1490 1429 1375 1324 1282 1228 1188 1151 1121 1089 1038 1010 975 971 976 978 942 963 986 1009 1027 1042 1052 1054 1070 1095 1100 1089 1081 1088 1085 1071 1090 1105 1119 1137 1154 1175 1212 1261 1293 1335 1368 1426 1470 1511 1517 1501 1518 1520 1543 1574 1585 1539 1483 1433 1387 1320 1258 1204 1140 1083 1027 995 961 936 902 880 851 829 820 801 785 772 760 745 744 738 728 721 712 700 682 661 639 607 576 564 557 554 555 556 560 568 573 581 589 602 614 636 653 671 691 698 741 762 776 794 816 852 878 914 959 998 1056 1110 1168 1218 1252 1297 1335 1386 1431 1476 1513 1536 1557 1527 1489 1408 1324 1287 1267 1267 1277 1320 1383 1445 1498 1551 1584 1603 1622 1632 1644 1663 1683 1719 1743 1769 1752 1668 1634 1612 1590 1580 1575
1619 1627 1637 1686 1668 1601 1534 1477 1421 1366 1342 1309 1255 1208 1173 1172 1193 1216 1247 1275 1319 1365 1412 1465 1528 1571 1633 1678 1627 1562 1490 1430 1390 1326 1271 1208 1170 1140 1108 1085 1067 1065 1068 1079 1112 1155 1248 1312 1358 1306 1241 1220 1191 1208 1227 1238 1261 1280 1304 1360 1426 1423 1405 1417 1405 1356 1308 1278 1301 1339 1387 1446 1519 1568 1597 1547 1507 1439 1363 1304 1230 1143 1061 1008 944 867 800 753 719 689 669 649 628 612 624 610 603 601 602 614 610 593 568 554 554 552 551 550 548 547 546 546 545 545 546 547 558 574 588 598 612 616 597 606 653 692 686 680 669 660 656 656 656 657 664 670 682 694 697 701 710 727 732 743 764 776 787 808 850 896 933 976 985 1005 1052 1126 1179 1222 1257 1294 1332 1356 1383 1418 1418 1414 1424 1426 1477 1521 1551 1565 1578 1620 1636 1625 1602 1580 1533 1501 1523 1526 1524 1549 1503 1469 1463 1448 1413 1352 1329 1293 1280 1299 1332 1365 1404 1458 1509 1555 1590 1633 1646 1591 1538 1543 1510 1458 1404 1341 1285 1244 1223 1214 1210 1206 1208 1211 1218 1254 1313 1384 1446 1462 1460 1488 1462 1424 1397 1408 1476 1512 1539 1591 1640 1602 1545 1495 1448 1388 1332 1299 1294 1314 1353 1407 1472 1531 1587 1565 1524 1480 1468 1421 1358 1298 1253 1226 1166 1113 1048 1004 979 951 937 928 918 910 901 892 882 877 877 877 877 877 877 877 882 888 900 916 925 939 948 967 981 999 1019 1054 1118 1151 1192 1243 1259 1260 1260 1253 1254 1234 1189 1182 1235 1275 1315 1333 1349 1373 1393 1426 1466 1526 1505 1457 1408 1381 1366 1364 1376 1418 1492 1521 1467 1409 1349 1276 1222 1168 1119 1087 1025 973 910 850 789 750 754 760 763 739 744 716 687 658 638 620 606 588 580 579 579 579 579 579 579 579 579 579 579 579 579 579 579 579 579 579 600 636 668 679 698 730 770 817 865 918 962 1020 1084 1147 1230 1309 1380 1454 1523 1586 1625 1621 1660 1661 1667 1640 1610 1630 1653 1681 1704 1656 1586 1514 1454 1392 1340 1289 1232 1170 1125 1075 1038 1013 1010 1035 1082 1125 1171 1183 1218 1269 1318 1349 1382 1414 1459 1501 1495 1454 1424 1444 1459 1434 1384 1326 1325 1328 1337 1294 1237 1195 1160 1128 1108 1094 1079 1064 1046 1029 1013 988 966 971 992 1011 1031 1046 1059 1081 1108 1138 1174 1220 1277 1332 1383 1435 1489 1492 1452 1402 1368 1312 1269 1231 1190 1150 1115 1097 1056 1033 1004 1028 1068 1101 1142 1181 1211 1256 1304 1344 1391 1429 1475 1533 1586 1616 1582 1560 1533 1507 1471 1398 1362 1320 1278 1235 1188 1143 1104 1070 1036 1001 989 996 996 989 956 995 1024 1044 1069 1079 1092 1100 1117 1145 1150 1138 1119 1116 1105 1093 1098 1113 1133 1156 1181 1205 1231 1281 1327 1363 1395 1435 1485 1529 1546 1542 1558 1568 1576 1584 1569 1506 1445 1392 1346 1281 1222 1173 1115 1057 1003 977 950 922 896 872 854 839 827 801 786 772 760 749 746 736 728 720 712 700 682 661 637 605 574 563 558 554 553 555 559 565 572 579 587 598 613 630 654 675 697 723 769 790 816 841 846 904 916 933 957 993 1037 1068 1119 1191 1221 1270 1321 1376 1421 1435 1461 1482 1500 1490 1482 1426 1342 1291 1273 1270 1279 1298 1364 1418 1471 1528 1559 1580 1608 1629 1655 1671 1679 1715 1755 1787 1760 1666 1635 1615 1595 1591 1585
1611 1673 1704 1695 1625 1551 1473 1423 1389 1357 1344 1328 1269 1209 1184 1185 1198 1217 1238 1261 1302 1352 1424 1507 1534 1604 1645 1695 1677 1572 1520 1421 1381 1311 1243 1196 1160 1129 1100 1077 1067 1072 1090 1101 1131 1171 1259 1319 1399 1408 1296 1250 1207 1206 1225 1233 1258 1285 1293 1316 1402 1445 1471 1474 1423 1378 1314 1313 1317 1353 1406 1466 1537 1573 1579 1524 1464 1395 1344 1281 1203 1135 1065 995 927 855 799 747 708 685 665 642 623 613 617 605 609 600 597 602 591 576 560 556 554 552 551 550 548 546 546 545 545 545 545 545 552 573 596 629 624 626 623 627 666 699 696 685 665 657 656 659 661 662 668 671 677 689 699 704 714 723 732 750 770 788 799 813 846 898 941 993 1005 1023 1076 1165 1204 1236 1272 1306 1324 1337 1355 1368 1366 1360 1358 1389 1445 1479 1501 1501 1508 1574 1613 1628 1635 1633 1580 1549 1564 1578 1603 1585 1524 1531 1513 1482 1442 1388 1343 1319 1297 1297 1321 1350 1385 1427 1482 1527 1577 1620 1656 1652 1611 1577 1528 1474 1430 1346 1284 1242 1226 1224 1216 1211 1214 1215 1231 1274 1337 1407 1462 1512 1510 1513 1503 1459 1431 1449 1487 1529 1552 1599 1651 1614 1550 1504 1459 1399 1342 1303 1298 1317 1364 1411 1474 1541 1554 1513 1480 1410 1402 1381 1341 1284 1215 1177 1138 1088 1041 985 959 941 931 924 913 906 896 888 882 877 877 877 877 877 877 879 886 896 910 930 944 956 965 976 1001 1023 1058 1092 1132 1201 1231 1299 1329 1324 1318 1291 1278 1265 1220 1187 1246 1285 1314 1333 1353 1374 1394 1418 1457 1510 1530 1487 1442 1413 1391 1380 1401 1446 1505 1523 1467 1405 1352 1289 1225 1166 1117 1055 997 939 884 826 778 785 810 824 805 778 781 741 705 666 632 607 592 580 579 579 579 579 579 579 579 579 579 579 579 579 579 579 579 579 579 579 579 620 654 670 689 711 745 790 831 878 929 985 1073 1126 1203 1284 1363 1446 1516 1544 1536 1585 1598 1582 1584 1611 1639 1650 1620 1638 1661 1677 1607 1532 1467 1408 1355 1305 1241 1182 1139 1091 1050 1026 1015 1039 1083 1121 1190 1239 1234 1266 1323 1352 1382 1412 1453 1479 1498 1480 1470 1471 1481 1434 1388 1357 1366 1372 1386 1316 1258 1220 1174 1143 1120 1102 1087 1072 1056 1040 1021 1000 971 969 980 1006 1024 1044 1059 1079 1104 1136 1172 1216 1270 1329 1379 1435 1486 1476 1422 1386 1357 1316 1272 1245 1217 1186 1154 1120 1085 1056 1023 1006 1055 1088 1123 1168 1200 1219 1274 1318 1360 1408 1442 1493 1554 1575 1567 1527 1504 1477 1436 1382 1334 1297 1253 1213 1160 1123 1085 1046 1024 1003 1022 1023 1018 1015 983 1024 1053 1069 1113 1120 1135 1150 1147 1198 1205 1196 1173 1137 1121 1107 1098 1121 1139 1178 1211 1236 1258 1309 1357 1403 1438 1472 1523 1574 1596 1606 1587 1566 1554 1550 1530 1455 1400 1349 1306 1262 1186 1144 1094 1043 996 957 932 909 888 873 862 850 833 821 793 776 764 753 745 736 726 719 710 700 680 657 630 594 571 560 555 554 553 554 559 566 572 579 587 598 610 616 648 684 718 746 773 806 831 861 883 921 945 963 981 1003 1051 1083 1113 1136 1196 1238 1293 1344 1385 1392 1416 1442 1463 1479 1486 1420 1354 1301 1275 1273 1285 1311 1359 1415 1451 1486 1523 1548 1579 1614 1646 1659 1669 1690 1738 1794 1794 1705 1655 1630 1610 1607 1600
1599 1674 1736 1720 1616 1537 1454 1406 1383 1369 1361 1354 1302 1230 1189 1191 1202 1215 1235 1258 1304 1355 1434 1507 1569 1621 1676 1717 1666 1609 1530 1436 1368 1304 1247 1204 1165 1135 1101 1079 1071 1083 1107 1129 1145 1188 1275 1323 1389 1446 1345 1288 1249 1237 1230 1242 1266 1294 1296 1313 1355 1418 1485 1521 1480 1426 1355 1350 1350 1366 1412 1472 1523 1565 1542 1490 1423 1364 1289 1231 1173 1111 1044 957 888 831 778 737 703 692 667 641 627 614 622 610 604 598 590 589 584 567 556 555 552 551 553 551 546 545 545 545 545 545 545 545 562 587 607 641 641 636 639 656 678 692 700 697 664 659 662 663 666 666 671 676 682 691 698 708 720 728 740 759 776 796 817 827 843 888 928 985 1010 1022 1071 1154 1205 1238 1266 1291 1284 1299 1311 1322 1326 1315 1316 1372 1428 1470 1435 1438 1482 1521 1572 1604 1614 1651 1640 1620 1637 1649 1668 1635 1572 1555 1560 1514 1477 1420 1375 1343 1318 1306 1318 1349 1381 1421 1471 1519 1576 1626 1644 1622 1591 1551 1484 1452 1424 1372 1310 1248 1239 1233 1225 1215 1213 1216 1231 1272 1329 1391 1452 1510 1531 1552 1540 1503 1472 1496 1522 1555 1590 1629 1647 1601 1542 1493 1447 1386 1336 1314 1301 1312 1361 1414 1471 1525 1525 1489 1437 1367 1338 1323 1313 1271 1213 1152 1095 1046 1005 967 942 931 922 918 907 899 891 883 878 877 877 877 877 877 878 883 889 900 913 939 959 975 983 994 1026 1048 1078 1119 1170 1240 1284 1327 1385 1367 1360 1335 1315 1281 1227 1206 1249 1298 1323 1343 1359 1376 1387 1405 1430 1449 1474 1500 1493 1442 1433 1407 1420 1449 1497 1508 1459 1407 1357 1283 1215 1157 1090 1040 981 904 847 796 784 824 863 875 814 807 793 760 718 685 641 603 584 580 579 579 579 579 579 579 579 579 579 579 579 579 579 579 579 579 579 579 579 611 647 668 684 703 738 779 825 865 923 977 1031 1095 1169 1258 1340 1417 1468 1470 1474 1518 1532 1501 1520 1542 1566 1576 1545 1558 1571 1614 1613 1541 1470 1410 1353 1299 1243 1186 1134 1095 1056 1032 1027 1058 1093 1125 1188 1253 1287 1275 1313 1350 1378 1406 1432 1463 1491 1517 1510 1514 1509 1466 1439 1417 1399 1419 1392 1328 1269 1225 1182 1149 1125 1106 1090 1075 1059 1038 1021 1000 979 969 975 1004 1024 1041 1053 1068 1092 1126 1161 1205 1250 1311 1366 1428 1472 1460 1416 1381 1347 1318 1286 1273 1252 1206 1172 1133 1105 1068 1038 1008 1050 1082 1118 1155 1191 1209 1258 1305 1346 1391 1427 1477 1521 1547 1547 1514 1488 1461 1415 1366 1318 1276 1232 1191 1145 1110 1084 1062 1031 1028 1045 1045 1040 1028 1014 1055 1085 1112 1138 1166 1185 1211 1216 1245 1275 1247 1208 1164 1131 1117 1119 1137 1161 1195 1233 1264 1296 1355 1397 1428 1456 1491 1544 1599 1623 1606 1581 1535 1520 1500 1476 1439 1375 1321 1260 1219 1131 1096 1060 1013 974 942 919 901 888 871 858 850 831 824 790 775 763 753 744 734 726 718 710 700 683 658 630 594 569 558 553 553 553 554 557 564 570 577 584 595 602 610 645 681 721 756 785 815 845 878 901 928 957 982 1008 1034 1077 1118 1158 1190 1215 1232 1247 1297 1342 1347 1363 1390 1420 1456 1523 1495 1386 1331 1293 1274 1279 1298 1353 1417 1448 1467 1491 1523 1546 1593 1627 1648 1669 1684 1725 1789 1820 1796 1694 1656 1626 1612 1611
1572 1655 1732 1698 1602 1511 1445 1404 1386 1380 1395 1377 1320 1249 1200 1193 1203 1210 1222 1257 1295 1330 1390 1494 1559 1609 1664 1725 1657 1589 1517 1425 1362 1286 1238 1195 1160 1129 1102 1081 1076 1098 1130 1162 1174 1194 1254 1313 1362 1426 1429 1320 1326 1293 1242 1237 1288 1304 1300 1315 1351 1407 1487 1545 1533 1459 1394 1371 1386 1390 1435 1477 1519 1537 1515 1476 1415 1342 1248 1191 1138 1089 1023 926 863 812 760 724 697 674 658 633 629 629 624 600 589 589 590 583 575 556 554 554 551 551 558 552 547 545 545 545 545 545 545 545 554 603 635 659 671 651 649 677 689 692 693 693 663 661 671 665 669 670 674 682 688 692 694 704 726 734 743 758 776 792 818 837 867 891 942 997 1018 1033 1062 1111 1166 1205 1229 1253 1262 1247 1261 1267 1269 1263 1277 1330 1369 1406 1413 1393 1446 1502 1538 1546 1574 1605 1648 1676 1667 1699 1722 1681 1639 1612 1586 1540 1488 1435 1391 1363 1330 1318 1312 1338 1365 1403 1447 1499 1561 1613 1607 1573 1529 1500 1438 1413 1396 1361 1306 1252 1245 1235 1225 1216 1216 1218 1235 1275 1322 1369 1406 1468 1503 1528 1540 1521 1523 1545 1554 1580 1604 1661 1643 1592 1536 1485 1436 1385 1345 1319 1311 1336 1375 1430 1492 1490 1483 1468 1425 1367 1307 1273 1260 1236 1182 1120 1073 1026 993 955 936 927 915 912 906 893 884 879 877 877 877 877 877 877 880 889 898 906 919 949 973 992 1008 1016 1037 1085 1111 1164 1212 1277 1315 1352 1408 1432 1409 1390 1355 1314 1255 1215 1244 1289 1318 1344 1356 1375 1387 1401 1415 1417 1433 1446 1473 1483 1475 1462 1462 1474 1510 1493 1442 1383 1320 1263 1170 1137 1090 1029 982 901 836 805 838 874 913 891 851 842 818 784 733 691 640 598 579 579 579 579 579 579 579 579 579 579 579 579 579 579 579 579 579 579 579 579 579 593 627 657 682 702 728 765 811 857 905 958 1013 1080 1150 1239 1322 1376 1444 1375 1422 1447 1463 1480 1459 1481 1501 1515 1516 1493 1507 1531 1553 1561 1499 1428 1374 1315 1264 1209 1156 1100 1063 1040 1033 1063 1094 1125 1189 1247 1324 1335 1334 1359 1385 1404 1426 1461 1494 1526 1570 1568 1539 1504 1473 1449 1432 1445 1414 1359 1305 1245 1208 1167 1139 1118 1100 1085 1066 1040 1023 1006 987 970 973 997 1023 1041 1052 1067 1090 1124 1164 1210 1255 1310 1368 1423 1467 1455 1419 1388 1350 1330 1317 1307 1280 1241 1205 1163 1134 1100 1064 1032 1028 1060 1099 1135 1181 1206 1243 1291 1333 1373 1418 1461 1505 1544 1547 1512 1478 1436 1386 1346 1295 1254 1214 1178 1139 1115 1091 1065 1035 1048 1061 1063 1059 1047 1037 1070 1111 1139 1156 1209 1221 1256 1285 1301 1340 1303 1242 1181 1136 1124 1135 1160 1178 1228 1264 1300 1340 1381 1449 1467 1491 1519 1581 1621 1603 1571 1545 1498 1472 1453 1437 1410 1335 1286 1234 1176 1122 1067 1040 997 967 940 920 901 888 875 853 846 822 802 784 774 764 752 743 731 724 717 707 699 675 648 617 586 567 553 552 552 552 552 556 562 569 576 582 593 604 617 647 686 716 752 784 810 841 875 902 929 959 987 1021 1052 1092 1146 1177 1212 1232 1245 1234 1239 1275 1284 1302 1356 1406 1454 1548 1496 1413 1347 1302 1307 1296 1305 1336 1413 1445 1466 1488 1513 1548 1585 1617 1646 1673 1711 1747 1792 1854 1862 1808 1728 1691 1651 1656
1538 1627 1701 1718 1611 1529 1475 1426 1408 1401 1438 1408 1336 1271 1218 1201 1208 1212 1218 1257 1295 1330 1380 1454 1516 1582 1645 1708 1681 1588 1500 1439 1375 1301 1245 1202 1165 1127 1108 1090 1095 1108 1157 1195 1213 1223 1262 1308 1360 1413 1459 1392 1375 1309 1278 1272 1305 1317 1303 1319 1342 1390 1462 1537 1578 1521 1430 1416 1424 1421 1443 1477 1521 1492 1439 1431 1391 1313 1228 1154 1085 1050 1000 927 844 802 758 722 694 671 653 636 633 630 601 588 586 586 584 577 570 554 550 551 561 570 561 547 545 545 545 545 545 545 545 545 545 580 629 650 642 641 660 676 694 685 677 667 668 671 675 667 673 673 681 690 696 698 699 703 723 731 735 762 764 785 817 824 853 883 916 952 1010 1040 1051 1092 1114 1153 1174 1193 1216 1200 1212 1217 1228 1231 1242 1278 1313 1332 1344 1383 1428 1455 1468 1489 1521 1553 1599 1620 1631 1671 1706 1738 1687 1650 1604 1549 1496 1448 1408 1382 1343 1329 1322 1337 1361 1393 1444 1504 1565 1587 1555 1521 1484 1454 1424 1377 1353 1320 1294 1266 1250 1239 1228 1220 1216 1227 1248 1272 1304 1348 1364 1418 1465 1489 1493 1476 1495 1523 1546 1579 1589 1665 1651 1594 1539 1494 1456 1413 1374 1342 1363 1367 1393 1441 1483 1438 1437 1421 1393 1350 1292 1237 1210 1194 1155 1076 1033 996 960 942 924 921 913 906 901 890 882 877 877 877 877 877 877 877 881 894 904 914 923 945 973 1009 1027 1041 1069 1125 1153 1194 1260 1306 1385 1412 1446 1483 1453 1437 1389 1337 1291 1244 1253 1271 1295 1325 1342 1371 1381 1391 1395 1400 1397 1413 1439 1465 1502 1511 1502 1507 1528 1488 1438 1366 1304 1243 1169 1104 1047 1009 949 885 819 843 888 928 944 920 900 888 846 816 765 720 667 613 579 579 579 579 579 579 579 579 579 579 579 579 579 579 579 579 579 579 579 579 579 592 618 650 676 699 724 744 785 832 883 934 989 1050 1094 1172 1242 1326 1346 1305 1357 1366 1392 1414 1397 1414 1445 1462 1467 1460 1472 1485 1507 1534 1491 1430 1372 1321 1264 1207 1157 1116 1075 1048 1036 1056 1090 1121 1178 1233 1313 1372 1388 1413 1405 1409 1430 1455 1496 1531 1597 1602 1550 1538 1504 1482 1467 1453 1417 1364 1309 1252 1217 1174 1145 1123 1105 1090 1072 1049 1028 1013 996 979 971 982 1017 1036 1048 1060 1078 1109 1149 1208 1251 1311 1364 1407 1434 1449 1432 1415 1379 1358 1350 1323 1310 1265 1222 1182 1143 1116 1083 1050 1028 1058 1094 1131 1162 1192 1223 1272 1313 1352 1400 1448 1497 1546 1568 1542 1503 1460 1412 1369 1345 1295 1254 1207 1159 1132 1096 1064 1046 1060 1081 1082 1077 1060 1052 1100 1141 1166 1201 1243 1273 1305 1349 1354 1407 1347 1272 1205 1144 1138 1156 1177 1201 1257 1293 1329 1373 1421 1480 1510 1533 1550 1586 1606 1569 1539 1507 1470 1419 1402 1382 1351 1289 1238 1194 1135 1089 1031 998 970 945 927 911 896 880 871 857 843 819 795 784 773 762 753 743 733 723 716 707 696 673 644 615 587 566 550 550 550 550 551 552 559 571 574 583 601 609 627 654 686 719 755 788 815 848 884 911 939 968 1001 1038 1079 1115 1189 1219 1243 1261 1303 1292 1264 1254 1260 1291 1379 1434 1473 1542 1540 1494 1421 1363 1341 1316 1334 1340 1386 1423 1455 1485 1533 1564 1603 1639 1667 1698 1741 1791 1838 1898 1931 1890 1832 1784 1732 1728
1526 1600 1679 1701 1607 1537 1495 1459 1444 1447 1469 1481 1377 1304 1250 1223 1217 1215 1216 1244 1287 1315 1369 1441 1508 1573 1615 1695 1679 1575 1500 1436 1364 1289 1244 1198 1157 1134 1129 1119 1116 1125 1167 1216 1248 1257 1271 1301 1338 1390 1456 1479 1380 1329 1309 1322 1339 1327 1314 1330 1344 1395 1464 1533 1585 1582 1496 1468 1470 1453 1450 1464 1504 1479 1381 1357 1345 1294 1225 1133 1058 999 947 892 825 780 741 712 687 666 644 631 621 612 596 590 590 586 580 578 574 553 546 556 571 567 556 547 545 545 546 546 546 546 545 548 550 573 609 623 626 648 669 663 675 678 677 675 667 676 678 670 671 690 686 693 714 700 704 710 724 730 735 761 775 797 838 853 854 856 889 896 944 986 1026 1071 1060 1090 1111 1137 1158 1148 1168 1185 1192 1203 1217 1230 1251 1271 1313 1351 1381 1399 1428 1467 1495 1516 1544 1560 1611 1658 1676 1731 1738 1677 1629 1586 1516 1472 1439 1404 1387 1348 1330 1334 1355 1381 1429 1488 1536 1562 1499 1476 1449 1424 1407 1415 1383 1348 1308 1273 1249 1240 1227 1221 1216 1225 1258 1297 1305 1311 1337 1376 1409 1451 1469 1454 1473 1486 1502 1527 1554 1640 1645 1592 1544 1509 1477 1440 1404 1378 1404 1415 1436 1439 1434 1403 1386 1377 1359 1323 1273 1229 1191 1156 1125 1048 1003 973 945 934 916 915 915 904 896 887 880 877 877 877 877 877 877 879 887 899 912 924 934 949 982 1010 1037 1061 1091 1170 1192 1220 1254 1313 1402 1449 1496 1532 1517 1487 1440 1374 1313 1253 1277 1291 1303 1315 1340 1369 1380 1385 1389 1391 1389 1395 1414 1443 1492 1537 1567 1557 1521 1484 1422 1386 1331 1266 1177 1101 1037 983 918 861 836 876 912 974 964 950 936 907 871 825 790 740 690 624 579 579 579 579 579 579 579 579 579 579 579 579 579 579 579 579 579 579 579 579 579 583 606 632 663 696 729 752 785 824 873 926 975 1031 1083 1147 1225 1265 1267 1282 1282 1303 1336 1354 1350 1358 1398 1419 1435 1424 1439 1463 1495 1529 1509 1448 1392 1341 1287 1230 1189 1137 1086 1055 1046 1060 1091 1126 1179 1240 1315 1374 1427 1468 1467 1454 1460 1476 1520 1561 1612 1639 1596 1583 1555 1530 1509 1482 1432 1388 1323 1269 1229 1191 1156 1136 1115 1100 1077 1055 1033 1014 1003 986 974 980 1016 1034 1047 1060 1077 1103 1142 1193 1247 1315 1353 1390 1419 1444 1464 1476 1445 1415 1390 1368 1368 1316 1265 1223 1172 1143 1110 1078 1040 1035 1081 1115 1149 1176 1215 1269 1316 1358 1404 1454 1507 1557 1586 1553 1521 1473 1425 1386 1350 1317 1276 1222 1178 1142 1109 1078 1066 1077 1098 1102 1095 1080 1060 1107 1151 1189 1229 1278 1332 1363 1396 1430 1445 1354 1282 1213 1145 1152 1175 1198 1225 1267 1320 1362 1413 1456 1500 1563 1580 1587 1606 1571 1527 1497 1461 1430 1376 1354 1330 1303 1249 1209 1163 1115 1080 1020 991 965 943 926 908 895 885 872 861 847 821 795 782 773 759 752 743 732 721 712 702 688 667 632 605 582 560 548 548 548 548 549 552 559 571 580 585 602 614 627 647 678 715 746 777 807 843 884 913 944 972 1007 1045 1089 1139 1205 1257 1288 1311 1329 1349 1318 1303 1291 1326 1410 1467 1519 1574 1560 1519 1460 1394 1348 1334 1359 1370 1369 1405 1450 1494 1529 1570 1619 1664 1702 1727 1783 1829 1862 1889 1899 1862 1856 1835 1812 1778
1470 1572 1641 1675 1621 1560 1533 1506 1492 1493 1514 1535 1403 1323 1273 1241 1231 1216 1218 1242 1278 1315 1355 1401 1453 1514 1572 1649 1697 1615 1530 1446 1367 1285 1236 1193 1150 1144 1148 1146 1135 1146 1195 1247 1282 1291 1294 1302 1327 1378 1455 1524 1442 1381 1356 1358 1368 1350 1330 1340 1362 1400 1444 1507 1565 1621 1571 1510 1480 1494 1489 1493 1475 1425 1338 1295 1274 1235 1189 1096 1049 991 934 884 826 768 738 704 684 658 635 620 610 604 592 589 602 591 589 583 571 547 546 550 562 550 549 547 546 546 546 546 546 547 548 550 556 558 586 601 626 643 644 649 670 677 679 675 668 689 688 670 670 702 692 709 747 707 713 719 730 734 743 764 791 807 831 875 893 883 885 899 911 913 948 998 992 1015 1042 1081 1111 1138 1120 1145 1155 1182 1195 1202 1211 1234 1272 1311 1310 1337 1379 1411 1456 1466 1480 1546 1599 1636 1636 1691 1734 1702 1643 1605 1537 1493 1457 1434 1417 1382 1347 1335 1355 1385 1425 1464 1509 1518 1477 1459 1448 1439 1446 1438 1399 1358 1322 1280 1253 1245 1228 1218 1216 1228 1278 1331 1361 1334 1337 1360 1383 1411 1435 1446 1462 1473 1483 1494 1533 1585 1668 1638 1587 1549 1515 1479 1439 1404 1414 1462 1450 1411 1380 1355 1328 1324 1303 1278 1237 1194 1162 1128 1085 1038 982 948 938 926 912 909 908 901 894 888 882 877 877 877 877 877 877 883 893 905 920 933 945 962 991 1020 1049 1080 1126 1209 1252 1278 1312 1345 1407 1476 1530 1603 1553 1494 1440 1379 1329 1276 1289 1316 1322 1326 1334 1354 1375 1388 1392 1389 1389 1391 1400 1428 1478 1525 1592 1549 1479 1429 1360 1335 1307 1254 1179 1090 1028 952 878 851 880 912 962 987 978 980 975 938 900 852 814 779 729 648 579 579 579 579 579 579 579 579 579 579 579 579 579 579 579 579 579 579 579 579 579 584 603 622 650 680 709 747 776 806 844 895 941 994 1054 1121 1181 1187 1189 1217 1203 1249 1278 1297 1326 1363 1388 1408 1418 1421 1449 1487 1522 1555 1516 1460 1402 1343 1287 1245 1201 1146 1106 1069 1053 1057 1078 1112 1160 1205 1270 1331 1401 1460 1496 1516 1512 1514 1531 1593 1646 1665 1625 1621 1605 1576 1537 1490 1434 1389 1329 1280 1235 1202 1170 1143 1120 1102 1083 1061 1042 1028 1011 999 983 977 996 1026 1041 1053 1068 1095 1133 1174 1223 1271 1331 1354 1407 1441 1475 1489 1497 1461 1453 1432 1380 1336 1292 1246 1197 1159 1129 1098 1062 1035 1066 1102 1139 1167 1203 1253 1306 1347 1392 1438 1489 1548 1594 1579 1546 1488 1441 1401 1363 1333 1293 1238 1193 1152 1116 1092 1084 1096 1115 1121 1112 1096 1073 1129 1168 1209 1249 1293 1368 1411 1460 1488 1454 1362 1283 1212 1159 1153 1179 1214 1247 1277 1334 1370 1420 1464 1517 1581 1621 1621 1599 1539 1491 1459 1424 1389 1327 1306 1284 1247 1227 1155 1116 1083 1051 1013 977 958 940 922 905 892 886 869 857 840 818 794 781 771 761 753 745 735 723 710 699 684 662 633 608 581 555 548 548 548 548 548 551 557 571 581 585 600 617 636 653 674 695 736 768 804 843 885 915 947 978 1018 1059 1103 1153 1211 1285 1336 1377 1387 1397 1376 1354 1340 1359 1424 1486 1543 1599 1590 1557 1514 1436 1378 1360 1374 1380 1381 1395 1424 1488 1551 1594 1673 1714 1754 1782 1814 1827 1834 1841 1842 1813 1796 1785 1768 1762
1455 1517 1571 1618 1648 1599 1592 1565 1548 1542 1558 1580 1463 1375 1310 1268 1239 1225 1222 1245 1282 1316 1367 1418 1442 1477 1532 1613 1682 1650 1561 1472 1377 1294 1237 1193 1157 1152 1159 1161 1155 1163 1197 1282 1334 1329 1316 1315 1324 1385 1464 1517 1457 1438 1401 1394 1393 1368 1345 1351 1372 1401 1425 1482 1523 1589 1630 1599 1545 1565 1521 1472 1417 1377 1292 1237 1208 1175 1128 1073 1004 957 912 863 795 747 726 703 681 659 631 611 611 602 592 583 592 593 602 582 576 547 546 546 547 547 547 547 546 546 546 546 547 550 551 554 569 572 588 612 631 646 649 658 667 678 681 675 677 703 702 682 678 684 699 722 739 720 727 732 739 749 764 773 794 805 832 858 915 946 971 976 980 959 951 948 965 972 977 995 1026 1061 1049 1076 1109 1147 1168 1163 1182 1207 1234 1267 1263 1306 1335 1383 1422 1434 1465 1513 1545 1570 1607 1658 1691 1733 1695 1643 1587 1535 1501 1466 1443 1406 1374 1350 1368 1387 1434 1468 1516 1500 1467 1461 1461 1464 1468 1435 1373 1350 1322 1291 1264 1253 1236 1220 1218 1231 1288 1336 1377 1394 1355 1366 1364 1385 1411 1441 1452 1471 1480 1502 1533 1614 1670 1663 1615 1572 1540 1494 1457 1459 1472 1480 1447 1404 1363 1328 1290 1277 1266 1244 1216 1168 1143 1107 1064 1025 965 939 932 922 916 911 903 895 889 884 878 877 877 877 877 877 878 888 900 910 928 941 960 978 995 1032 1051 1085 1143 1212 1299 1335 1383 1418 1448 1522 1598 1597 1536 1484 1430 1373 1327 1278 1308 1333 1338 1348 1359 1365 1381 1393 1395 1394 1392 1391 1395 1414 1455 1508 1561 1558 1482 1407 1347 1288 1244 1219 1178 1071 1010 938 877 884 942 978 1006 1009 999 1009 999 959 917 862 820 781 741 681 591 579 579 579 579 579 579 579 579 579 579 579 579 579 579 579 579 579 579 581 585 593 611 628 648 677 702 750 785 804 840 880 923 969 1038 1077 1119 1113 1107 1137 1195 1236 1264 1306 1338 1387 1406 1424 1433 1434 1475 1502 1545 1582 1518 1471 1417 1350 1288 1253 1207 1164 1121 1079 1060 1063 1079 1108 1155 1190 1247 1306 1351 1405 1455 1516 1556 1550 1552 1589 1638 1684 1670 1675 1660 1612 1563 1512 1455 1406 1357 1300 1248 1207 1185 1154 1125 1095 1091 1069 1051 1034 1016 1004 991 983 993 1018 1037 1050 1066 1085 1120 1153 1203 1240 1294 1348 1401 1439 1494 1525 1554 1532 1522 1478 1415 1368 1325 1277 1231 1188 1143 1114 1086 1049 1064 1097 1135 1166 1204 1252 1303 1343 1389 1439 1495 1553 1586 1564 1533 1493 1447 1416 1381 1348 1313 1257 1211 1164 1133 1113 1102 1110 1124 1147 1137 1118 1097 1113 1172 1213 1258 1321 1382 1428 1486 1527 1464 1361 1276 1203 1167 1165 1199 1240 1277 1323 1374 1411 1440 1491 1545 1604 1646 1624 1578 1529 1465 1427 1387 1344 1314 1265 1235 1205 1182 1111 1082 1059 1029 999 968 954 936 915 903 887 879 862 848 829 808 789 778 770 760 751 744 734 722 705 690 672 652 625 601 574 550 548 548 548 548 548 550 554 565 575 581 593 606 631 649 670 705 721 750 782 827 874 908 942 972 1024 1070 1125 1189 1249 1333 1399 1436 1447 1447 1428 1411 1407 1416 1485 1521 1578 1635 1616 1582 1540 1497 1438 1404 1381 1388 1395 1399 1424 1456 1537 1644 1706 1766 1796 1805 1817 1783 1785 1785 1785 1783 1745 1740 1721 1721
1449 1486 1535 1588 1645 1638 1628 1620 1608 1605 1619 1588 1493 1410 1355 1305 1267 1250 1233 1245 1271 1308 1361 1412 1451 1472 1499 1584 1685 1644 1545 1460 1373 1283 1227 1182 1162 1161 1166 1165 1164 1182 1230 1309 1372 1375 1327 1325 1329 1371 1448 1502 1520 1461 1472 1464 1413 1373 1365 1362 1378 1405 1424 1465 1508 1572 1623 1669 1610 1538 1488 1432 1386 1341 1278 1206 1159 1131 1095 1034 973 936 894 836 788 744 723 693 665 642 627 621 617 607 591 580 580 588 589 574 577 552 546 546 546 547 546 546 546 546 546 546 546 551 563 568 593 609 630 650 630 645 660 675 674 679 684 675 690 702 703 697 686 690 695 696 722 728 731 730 740 754 783 794 795 812 831 844 894 958 1012 1037 1056 1048 1039 1015 1004 1046 1034 1017 1003 1009 1043 1049 1060 1080 1106 1113 1151 1175 1199 1219 1243 1257 1302 1344 1378 1398 1439 1466 1491 1545 1600 1608 1640 1709 1719 1681 1627 1573 1532 1494 1451 1431 1401 1371 1378 1389 1447 1477 1534 1525 1484 1484 1477 1472 1454 1413 1362 1345 1315 1294 1273 1250 1240 1229 1230 1249 1307 1357 1385 1402 1395 1392 1375 1381 1393 1417 1452 1495 1521 1544 1564 1659 1699 1663 1619 1583 1554 1517 1500 1509 1502 1454 1411 1376 1339 1309 1273 1255 1238 1221 1188 1154 1117 1077 1039 999 956 937 929 924 920 914 905 894 886 881 877 877 877 877 877 877 882 899 909 920 939 954 980 1000 1015 1045 1076 1123 1174 1245 1336 1406 1434 1487 1503 1554 1621 1591 1525 1484 1433 1386 1332 1294 1327 1345 1353 1367 1377 1378 1393 1397 1402 1409 1403 1424 1411 1441 1469 1507 1565 1540 1483 1420 1358 1299 1229 1172 1117 1069 1007 937 881 917 968 1016 1023 1028 1024 1019 1022 995 950 894 842 796 749 684 607 579 579 579 579 579 579 579 579 579 579 579 579 579 579 579 579 579 579 580 590 604 608 630 649 672 697 727 763 794 824 862 900 934 981 1038 1027 1052 1106 1175 1236 1289 1317 1346 1373 1395 1423 1445 1462 1472 1502 1535 1584 1609 1549 1488 1439 1383 1321 1270 1249 1208 1147 1103 1066 1065 1080 1098 1134 1180 1227 1280 1335 1385 1432 1469 1522 1546 1559 1568 1603 1633 1641 1658 1642 1605 1564 1511 1458 1410 1361 1310 1266 1234 1209 1173 1142 1118 1108 1090 1066 1046 1026 1014 999 992 992 1010 1030 1044 1061 1078 1108 1136 1196 1248 1308 1357 1409 1447 1509 1553 1588 1599 1543 1493 1427 1385 1345 1287 1240 1194 1169 1136 1110 1080 1055 1082 1117 1153 1190 1234 1285 1339 1385 1440 1487 1544 1578 1551 1516 1467 1431 1409 1378 1349 1315 1260 1214 1169 1160 1137 1124 1142 1153 1169 1156 1132 1109 1128 1183 1227 1277 1328 1376 1427 1479 1521 1486 1380 1284 1217 1177 1171 1208 1253 1300 1354 1393 1449 1477 1508 1561 1607 1649 1609 1555 1495 1427 1388 1342 1303 1273 1214 1184 1154 1125 1088 1047 1025 1004 982 960 943 922 905 894 880 872 859 841 820 804 788 777 768 758 751 744 735 724 704 684 666 648 625 599 574 548 548 548 548 548 548 548 551 562 571 576 594 618 651 677 695 734 757 765 782 825 878 915 947 976 1014 1058 1114 1187 1256 1331 1391 1462 1502 1511 1507 1485 1483 1487 1553 1578 1623 1674 1643 1618 1585 1554 1499 1438 1399 1397 1395 1411 1435 1466 1552 1621 1701 1768 1764 1763 1765 1751 1738 1736 1734 1731 1695 1690 1684 1693
1407 1458 1510 1561 1620 1645 1640 1653 1666 1667 1663 1613 1529 1453 1389 1328 1283 1270 1249 1260 1280 1314 1356 1412 1459 1494 1521 1591 1674 1657 1567 1468 1398 1299 1230 1174 1170 1170 1172 1172 1170 1192 1254 1328 1424 1392 1340 1338 1347 1383 1426 1485 1535 1535 1552 1519 1437 1407 1395 1383 1377 1396 1417 1446 1496 1559 1633 1669 1591 1521 1462 1398 1322 1274 1231 1153 1114 1076 1046 1002 938 899 857 812 776 742 718 686 656 637 635 637 621 608 591 580 580 581 579 568 569 546 546 546 546 546 546 546 546 546 546 546 546 553 573 579 599 624 649 665 637 638 667 681 682 686 689 689 695 702 702 699 694 696 700 695 719 754 729 742 756 765 820 820 821 835 855 888 879 881 940 1029 1075 1086 1089 1085 1078 1076 1099 1092 1071 1063 1082 1089 1081 1077 1087 1107 1130 1149 1173 1192 1215 1230 1266 1301 1337 1374 1380 1413 1463 1520 1552 1545 1593 1673 1711 1703 1669 1622 1569 1522 1473 1445 1417 1391 1394 1412 1463 1501 1560 1534 1503 1497 1469 1444 1417 1384 1358 1346 1327 1306 1281 1262 1248 1242 1238 1258 1319 1366 1391 1403 1404 1400 1390 1394 1400 1422 1475 1546 1602 1647 1673 1688 1722 1672 1626 1588 1568 1554 1540 1521 1483 1431 1386 1350 1316 1291 1274 1249 1227 1200 1172 1139 1090 1055 1023 986 948 933 924 921 919 913 903 891 883 878 877 877 877 877 877 878 891 906 918 929 940 963 988 1014 1035 1061 1126 1160 1209 1290 1367 1444 1501 1541 1585 1628 1628 1577 1514 1475 1425 1373 1328 1316 1340 1355 1366 1376 1383 1392 1401 1410 1423 1447 1460 1491 1481 1476 1492 1524 1562 1490 1434 1386 1349 1279 1234 1181 1103 1053 985 916 908 969 1016 1027 1038 1048 1044 1037 1043 1021 972 920 855 817 761 704 651 586 579 579 579 579 579 579 579 579 579 579 579 579 579 579 579 579 579 579 603 614 614 632 652 675 698 728 753 782 814 854 886 908 936 975 1003 1045 1097 1163 1220 1261 1303 1343 1371 1388 1419 1453 1477 1496 1537 1579 1629 1619 1561 1502 1445 1394 1338 1293 1259 1208 1150 1112 1082 1069 1081 1101 1126 1172 1218 1263 1316 1362 1388 1417 1451 1487 1519 1532 1547 1572 1595 1613 1634 1610 1567 1520 1471 1429 1386 1333 1284 1250 1219 1172 1155 1136 1114 1099 1076 1054 1034 1017 1005 1000 996 1004 1026 1039 1057 1074 1094 1112 1152 1211 1278 1324 1361 1395 1447 1507 1564 1599 1555 1500 1445 1397 1358 1304 1257 1212 1184 1149 1122 1097 1064 1077 1114 1148 1188 1234 1282 1333 1378 1435 1478 1531 1566 1528 1497 1446 1418 1398 1375 1351 1319 1282 1238 1200 1177 1176 1154 1164 1174 1175 1172 1150 1123 1133 1186 1237 1287 1335 1383 1427 1475 1504 1479 1371 1277 1217 1183 1178 1225 1278 1333 1378 1414 1480 1519 1540 1585 1631 1640 1591 1537 1487 1431 1376 1328 1280 1244 1196 1143 1105 1080 1057 1022 1000 989 970 949 929 911 896 884 868 859 847 826 813 794 782 771 764 756 744 741 734 722 702 677 658 640 619 592 563 548 548 548 548 548 548 548 548 555 565 572 588 618 665 701 720 759 784 802 812 831 879 916 952 983 1014 1056 1102 1168 1250 1316 1370 1436 1499 1543 1578 1580 1578 1583 1584 1655 1687 1730 1692 1678 1641 1596 1543 1484 1445 1411 1409 1401 1426 1456 1526 1652 1755 1730 1718 1713 1713 1708 1688 1687 1687 1684 1664 1652 1655 1666
1383 1457 1519 1564 1601 1627 1634 1663 1705 1713 1698 1645 1568 1525 1456 1376 1320 1288 1271 1273 1292 1329 1363 1416 1492 1522 1558 1621 1692 1625 1531 1453 1383 1292 1222 1176 1173 1173 1173 1176 1176 1200 1251 1331 1422 1441 1368 1354 1363 1398 1424 1475 1528 1579 1609 1542 1466 1444 1428 1391 1397 1399 1415 1438 1468 1541 1626 1640 1567 1513 1429 1359 1291 1225 1192 1125 1079 1038 997 955 893 858 826 794 766 736 697 675 645 640 639 623 613 609 587 580 581 570 557 556 552 548 547 546 546 546 546 546 546 546 546 546 546 552 574 582 606 641 671 662 655 637 673 696 690 696 691 698 704 701 701 700 699 702 705 706 720 758 747 791 781 787 832 841 855 869 892 934 961 944 909 994 1076 1108 1114 1120 1120 1114 1121 1118 1113 1110 1106 1118 1117 1115 1109 1097 1118 1126 1154 1171 1192 1210 1230 1265 1306 1338 1364 1393 1434 1468 1491 1532 1575 1605 1648 1698 1712 1665 1613 1553 1503 1472 1452 1428 1413 1439 1470 1514 1565 1537 1516 1496 1433 1404 1386 1356 1341 1332 1325 1315 1290 1265 1259 1253 1247 1271 1325 1367 1376 1393 1399 1401 1398 1406 1411 1431 1474 1544 1602 1655 1709 1758 1736 1693 1647 1620 1594 1559 1520 1478 1437 1402 1345 1315 1289 1271 1256 1230 1216 1186 1155 1123 1069 1040 1010 976 946 934 919 915 915 912 902 891 884 878 877 877 877 880 879 883 905 919 932 944 955 978 1005 1036 1058 1089 1160 1199 1253 1315 1384 1467 1518 1558 1597 1629 1622 1569 1519 1476 1426 1389 1373 1354 1352 1360 1375 1383 1390 1402 1409 1437 1459 1476 1496 1514 1536 1523 1531 1577 1558 1497 1424 1361 1303 1262 1202 1162 1110 1054 994 915 940 990 1024 1040 1061 1073 1064 1067 1064 1033 993 936 890 842 775 727 670 623 579 579 579 579 579 579 579 579 579 579 579 579 579 579 579 579 579 579 579 607 614 624 641 664 681 720 766 781 811 850 879 912 948 993 1039 1102 1156 1174 1211 1248 1276 1309 1344 1376 1395 1442 1477 1511 1548 1615 1667 1650 1586 1528 1480 1426 1368 1320 1272 1222 1180 1134 1096 1080 1088 1104 1127 1167 1210 1247 1289 1336 1372 1374 1409 1444 1477 1507 1510 1536 1560 1582 1600 1607 1594 1549 1497 1460 1415 1364 1319 1279 1233 1204 1190 1160 1129 1113 1090 1069 1048 1029 1016 1007 1002 1002 1017 1038 1055 1072 1087 1109 1144 1194 1238 1285 1312 1363 1422 1496 1559 1572 1576 1524 1472 1415 1379 1332 1279 1236 1201 1169 1142 1119 1095 1073 1100 1135 1169 1217 1258 1308 1354 1400 1468 1508 1552 1509 1477 1437 1408 1390 1367 1345 1320 1290 1259 1231 1209 1197 1187 1188 1191 1193 1191 1174 1145 1157 1192 1239 1286 1333 1377 1413 1443 1477 1494 1400 1311 1244 1195 1181 1221 1292 1348 1388 1438 1493 1547 1583 1627 1655 1614 1573 1528 1476 1421 1382 1327 1265 1221 1175 1121 1078 1052 1034 1002 986 975 961 943 917 903 890 877 866 848 834 817 806 788 776 768 764 754 739 737 734 723 704 676 646 628 608 578 548 548 548 548 548 548 548 548 548 556 564 573 592 628 679 714 739 762 801 824 839 855 876 911 944 978 1007 1038 1079 1134 1202 1279 1316 1377 1438 1509 1569 1601 1618 1627 1643 1647 1688 1754 1759 1724 1705 1647 1582 1520 1476 1440 1427 1418 1434 1466 1548 1701 1714 1688 1672 1666 1664 1666 1637 1638 1644 1647 1627 1614 1618 1630
1344 1419 1480 1540 1574 1607 1631 1673 1738 1759 1715 1629 1592 1581 1501 1405 1348 1307 1298 1300 1315 1341 1366 1421 1526 1580 1581 1649 1689 1618 1522 1457 1381 1291 1211 1174 1173 1174 1174 1173 1179 1232 1283 1343 1417 1474 1418 1376 1375 1398 1418 1460 1518 1573 1631 1603 1513 1480 1453 1419 1422 1405 1409 1435 1466 1547 1623 1582 1525 1475 1399 1309 1246 1187 1129 1087 1034 996 955 927 891 841 818 792 768 728 690 670 641 636 634 617 609 603 587 582 580 574 551 548 548 547 546 548 548 546 546 546 546 546 546 546 546 547 577 594 630 657 675 671 669 663 667 702 696 702 698 699 705 701 699 702 712 723 728 736 718 751 749 781 802 800 818 879 907 907 925 954 1003 1015 949 981 1066 1117 1129 1136 1136 1131 1137 1133 1127 1123 1122 1125 1132 1132 1131 1120 1125 1124 1129 1151 1168 1190 1204 1234 1270 1303 1331 1359 1390 1419 1467 1518 1516 1567 1627 1687 1716 1693 1640 1586 1531 1495 1501 1477 1445 1450 1475 1542 1569 1547 1532 1492 1430 1396 1376 1344 1333 1331 1336 1337 1309 1279 1273 1267 1263 1281 1347 1379 1374 1388 1393 1395 1401 1413 1422 1443 1478 1533 1573 1619 1667 1711 1733 1687 1651 1619 1585 1518 1488 1448 1407 1373 1329 1294 1274 1258 1244 1220 1200 1169 1129 1091 1046 1015 984 960 941 932 920 914 911 908 899 890 883 878 877 877 878 882 886 893 911 928 943 956 969 988 1017 1049 1080 1122 1199 1256 1315 1369 1417 1460 1474 1506 1540 1577 1595 1572 1518 1473 1424 1417 1417 1399 1373 1365 1379 1387 1391 1399 1417 1440 1466 1485 1503 1515 1548 1591 1610 1623 1579 1528 1461 1396 1336 1270 1222 1151 1086 1034 981 926 972 1022 1041 1063 1095 1099 1088 1096 1087 1071 1022 970 927 873 809 757 706 648 607 579 579 579 579 579 579 579 579 579 579 579 579 579 579 579 579 581 579 583 604 616 635 655 677 701 736 772 807 840 865 899 938 982 1045 1128 1191 1232 1232 1270 1307 1329 1338 1352 1420 1460 1501 1540 1583 1652 1727 1661 1604 1538 1473 1423 1372 1324 1271 1241 1198 1145 1105 1088 1088 1098 1117 1146 1188 1218 1247 1288 1321 1347 1366 1397 1424 1454 1464 1489 1515 1539 1568 1577 1596 1574 1517 1471 1434 1379 1338 1284 1235 1243 1215 1172 1143 1117 1098 1078 1058 1033 1022 1014 1005 1002 1006 1028 1046 1063 1081 1099 1134 1174 1209 1247 1302 1353 1412 1474 1527 1543 1544 1538 1486 1430 1389 1344 1299 1250 1211 1181 1151 1130 1105 1085 1090 1125 1162 1208 1252 1286 1337 1379 1431 1481 1533 1514 1476 1434 1416 1397 1380 1361 1334 1304 1276 1257 1237 1220 1212 1208 1211 1207 1205 1194 1167 1185 1205 1255 1291 1339 1378 1409 1432 1458 1474 1408 1323 1266 1206 1191 1243 1315 1367 1406 1450 1502 1559 1598 1629 1629 1578 1544 1518 1500 1461 1425 1353 1292 1233 1186 1124 1077 1045 1022 998 976 963 949 927 906 892 879 866 854 832 820 806 795 783 765 759 752 742 735 732 728 714 697 661 640 621 601 563 548 548 548 548 548 548 548 548 548 551 560 571 589 625 671 710 741 770 809 833 853 880 900 930 958 992 1020 1036 1069 1117 1177 1243 1289 1341 1407 1474 1535 1568 1585 1598 1611 1629 1666 1722 1766 1776 1762 1699 1633 1564 1525 1479 1451 1443 1445 1476 1566 1672 1669 1659 1636 1632 1626 1622 1597 1600 1605 1609 1609 1581 1587 1593
1324 1389 1443 1502 1538 1574 1622 1668 1704 1727 1735 1655 1610 1633 1525 1448 1388 1336 1326 1336 1349 1371 1394 1451 1548 1662 1662 1691 1679 1599 1521 1453 1383 1302 1237 1178 1173 1173 1173 1173 1180 1244 1292 1348 1412 1471 1475 1423 1408 1415 1440 1464 1526 1588 1644 1636 1553 1515 1488 1470 1443 1420 1409 1429 1453 1528 1595 1558 1497 1438 1362 1276 1216 1157 1089 1053 988 945 920 897 869 853 843 793 754 717 692 662 638 636 635 627 623 621 613 602 584 579 570 560 548 546 546 548 547 546 546 547 546 547 546 546 546 550 580 600 636 680 696 683 666 663 663 700 699 698 703 703 706 704 698 700 712 719 727 739 725 732 758 794 817 827 853 921 953 951 962 993 1011 1049 993 980 1060 1115 1140 1145 1147 1147 1142 1146 1141 1136 1134 1136 1142 1142 1140 1137 1132 1130 1127 1140 1155 1178 1189 1211 1243 1276 1309 1323 1351 1390 1439 1476 1486 1540 1587 1644 1692 1717 1698 1647 1592 1536 1520 1498 1471 1467 1489 1565 1578 1556 1523 1460 1424 1405 1373 1338 1332 1336 1344 1344 1320 1292 1279 1284 1278 1297 1344 1372 1389 1394 1395 1396 1401 1425 1422 1435 1466 1520 1562 1603 1647 1691 1698 1643 1592 1564 1534 1503 1442 1407 1375 1341 1306 1274 1259 1245 1230 1206 1183 1151 1113 1077 1049 1003 973 958 945 936 933 922 914 906 896 888 881 879 877 877 883 888 896 907 922 941 954 968 984 1006 1043 1067 1107 1160 1210 1289 1335 1377 1400 1417 1425 1450 1484 1514 1543 1561 1531 1481 1436 1446 1466 1465 1419 1391 1384 1393 1395 1405 1422 1446 1468 1493 1511 1524 1565 1627 1666 1609 1571 1530 1491 1427 1357 1302 1223 1164 1101 1047 996 941 977 1031 1065 1093 1127 1120 1112 1129 1129 1106 1055 992 942 893 824 761 714 666 622 579 579 579 579 579 579 579 579 579 579 579 579 579 579 579 579 584 598 592 597 610 632 648 670 695 720 757 801 832 861 899 932 973 1034 1102 1177 1244 1301 1304 1401 1419 1429 1438 1443 1507 1522 1568 1615 1677 1752 1704 1634 1566 1496 1419 1379 1335 1288 1243 1200 1158 1123 1097 1095 1095 1112 1142 1173 1191 1221 1259 1291 1317 1330 1356 1380 1413 1436 1450 1475 1501 1528 1550 1577 1589 1554 1504 1465 1408 1351 1298 1270 1277 1240 1192 1166 1130 1109 1086 1071 1041 1027 1022 1010 1003 1004 1023 1042 1060 1081 1104 1126 1156 1195 1240 1296 1345 1396 1448 1483 1497 1496 1519 1499 1452 1410 1369 1326 1277 1238 1206 1176 1148 1120 1097 1090 1105 1147 1192 1235 1273 1321 1369 1417 1470 1516 1524 1479 1442 1426 1408 1388 1365 1339 1315 1291 1271 1254 1228 1235 1229 1229 1223 1216 1205 1191 1198 1222 1265 1292 1328 1363 1394 1430 1452 1469 1437 1345 1281 1231 1216 1263 1331 1379 1418 1466 1514 1582 1610 1612 1590 1555 1487 1467 1471 1465 1406 1353 1296 1240 1182 1114 1071 1035 1011 991 963 951 933 920 900 885 872 858 846 826 811 798 788 778 763 750 736 729 723 711 707 700 682 648 629 606 582 551 548 548 548 548 548 548 548 552 548 548 557 570 591 626 663 706 745 780 808 837 862 885 908 936 966 996 1033 1047 1067 1091 1133 1185 1232 1291 1373 1433 1494 1520 1545 1563 1582 1599 1628 1668 1697 1743 1744 1732 1667 1603 1544 1535 1487 1473 1476 1548 1618 1635 1633 1632 1609 1604 1598 1591 1588 1568 1570 1572 1573 1550 1548 1551
1310 1359 1421 1452 1495 1561 1619 1642 1636 1649 1659 1655 1646 1663 1587 1498 1439 1381 1375 1387 1396 1411 1433 1460 1532 1618 1736 1731 1668 1579 1497 1427 1362 1296 1237 1179 1173 1173 1173 1173 1176 1230 1285 1351 1401 1447 1494 1480 1461 1460 1501 1503 1526 1584 1657 1654 1608 1559 1534 1510 1471 1435 1424 1435 1463 1539 1567 1512 1442 1376 1324 1239 1187 1131 1078 1031 977 932 902 880 859 838 810 778 744 716 689 656 641 642 643 639 640 635 633 609 595 585 583 577 553 547 548 547 547 546 547 549 571 550 547 546 546 552 577 612 638 683 706 697 673 663 663 682 689 699 702 704 704 701 695 695 697 699 701 729 726 727 753 783 819 837 886 924 973 985 997 1022 1043 1070 1040 994 1052 1114 1149 1158 1161 1160 1152 1158 1151 1149 1146 1146 1153 1152 1149 1146 1141 1142 1129 1129 1146 1164 1176 1189 1212 1253 1288 1306 1331 1364 1399 1434 1476 1520 1560 1604 1661 1706 1733 1681 1625 1568 1527 1523 1509 1505 1518 1577 1595 1569 1516 1457 1428 1425 1382 1341 1335 1339 1347 1346 1317 1296 1293 1311 1323 1356 1383 1387 1418 1417 1413 1424 1452 1462 1435 1427 1462 1509 1567 1599 1646 1660 1664 1616 1581 1536 1496 1466 1408 1379 1336 1307 1284 1258 1242 1229 1216 1194 1147 1116 1085 1049 1025 985 966 949 941 944 943 926 916 907 898 888 881 879 878 879 886 893 905 915 928 950 965 982 1003 1022 1071 1085 1126 1193 1245 1275 1318 1350 1373 1391 1396 1414 1438 1467 1507 1520 1560 1522 1480 1469 1518 1537 1482 1428 1407 1398 1398 1405 1424 1441 1473 1529 1540 1566 1598 1634 1612 1567 1533 1505 1447 1382 1316 1257 1188 1145 1095 1048 1003 949 983 1040 1085 1120 1135 1139 1138 1166 1189 1152 1101 1048 990 933 865 795 732 683 633 607 579 579 579 579 579 579 579 579 579 579 579 579 579 579 579 579 603 614 601 610 629 645 662 689 718 748 781 809 844 880 914 956 1010 1058 1127 1230 1307 1368 1404 1484 1521 1530 1529 1569 1586 1635 1686 1722 1698 1704 1646 1573 1501 1439 1391 1348 1303 1255 1235 1193 1148 1116 1099 1095 1108 1123 1144 1173 1192 1224 1252 1280 1290 1321 1350 1382 1409 1417 1443 1467 1498 1534 1557 1585 1554 1508 1464 1401 1350 1333 1324 1303 1259 1219 1184 1147 1125 1099 1083 1060 1034 1026 1030 1019 1003 1009 1027 1051 1069 1091 1109 1136 1163 1217 1283 1326 1369 1409 1434 1455 1456 1480 1475 1443 1406 1362 1327 1286 1251 1210 1193 1162 1130 1110 1095 1090 1122 1173 1216 1250 1294 1345 1386 1435 1472 1515 1535 1491 1473 1440 1407 1374 1349 1331 1310 1278 1266 1246 1258 1252 1245 1235 1222 1213 1205 1225 1254 1275 1303 1343 1375 1407 1446 1477 1509 1482 1379 1309 1259 1239 1275 1331 1390 1435 1481 1529 1597 1633 1598 1558 1503 1444 1406 1407 1405 1389 1339 1295 1243 1166 1102 1055 1019 998 980 950 919 903 895 886 869 856 843 830 812 797 786 776 769 754 743 731 720 708 692 685 679 663 645 611 582 550 548 548 548 548 548 548 548 555 575 574 548 549 564 586 628 662 714 750 785 811 836 863 890 918 957 988 1014 1049 1070 1086 1098 1118 1157 1212 1256 1324 1389 1433 1431 1469 1511 1535 1564 1554 1583 1608 1641 1707 1722 1746 1683 1621 1633 1596 1580 1571 1600 1615 1612 1612 1608 1599 1585 1576 1566 1560 1531 1530 1529 1530 1516 1492 1490
1275 1321 1364 1395 1453 1511 1541 1580 1570 1586 1602 1619 1628 1654 1598 1519 1460 1410 1401 1444 1455 1469 1486 1507 1558 1635 1736 1780 1718 1612 1510 1434 1352 1292 1243 1190 1173 1173 1173 1173 1180 1241 1296 1351 1410 1448 1496 1510 1501 1502 1525 1537 1567 1605 1640 1657 1664 1636 1588 1547 1500 1462 1439 1447 1471 1548 1539 1470 1406 1343 1290 1226 1166 1096 1050 1002 950 915 884 865 845 825 794 771 748 714 680 662 651 646 642 640 642 642 641 611 600 590 587 563 548 548 550 551 553 560 562 574 574 560 550 546 546 562 589 609 644 668 690 701 693 690 668 665 681 700 701 701 698 692 687 695 699 700 702 714 720 728 760 790 810 842 887 935 973 997 1010 1049 1066 1094 1090 1042 1044 1110 1149 1171 1185 1179 1172 1182 1175 1163 1156 1157 1162 1166 1155 1152 1149 1147 1141 1133 1143 1157 1171 1181 1193 1226 1263 1296 1304 1334 1367 1400 1429 1460 1514 1566 1629 1692 1706 1702 1656 1586 1548 1556 1560 1563 1580 1616 1607 1560 1502 1453 1440 1448 1391 1348 1339 1340 1349 1350 1326 1301 1299 1333 1373 1403 1456 1447 1461 1460 1474 1507 1530 1524 1484 1469 1494 1536 1601 1621 1628 1609 1602 1579 1545 1507 1460 1423 1383 1344 1311 1290 1272 1245 1230 1216 1194 1170 1137 1093 1055 1030 1008 980 965 952 950 954 945 926 913 905 896 887 882 879 879 882 890 902 914 926 941 962 972 990 1012 1040 1081 1103 1134 1185 1218 1243 1280 1317 1338 1362 1364 1380 1402 1429 1467 1493 1528 1568 1551 1524 1564 1587 1534 1479 1433 1429 1412 1418 1437 1461 1494 1532 1565 1615 1657 1610 1565 1539 1511 1471 1390 1345 1287 1237 1206 1187 1120 1064 1023 982 992 1057 1110 1135 1146 1153 1160 1203 1227 1173 1124 1057 1006 951 878 806 739 693 662 625 579 579 579 579 579 579 579 579 579 579 579 579 579 579 579 579 580 615 613 615 635 646 659 686 726 755 778 806 842 869 905 951 1007 1059 1135 1207 1271 1315 1374 1440 1495 1544 1584 1612 1627 1647 1654 1658 1629 1645 1640 1587 1526 1460 1408 1360 1317 1272 1245 1209 1169 1130 1109 1097 1109 1125 1153 1183 1192 1206 1228 1255 1276 1292 1320 1350 1374 1391 1413 1435 1464 1507 1536 1565 1552 1508 1463 1399 1383 1393 1379 1335 1293 1254 1204 1160 1128 1107 1087 1068 1039 1029 1039 1034 1009 1003 1014 1043 1064 1077 1100 1122 1150 1190 1235 1285 1310 1356 1388 1416 1438 1461 1479 1445 1404 1371 1344 1309 1272 1234 1214 1181 1149 1125 1110 1100 1116 1161 1204 1235 1277 1328 1364 1411 1439 1493 1555 1552 1494 1473 1430 1386 1357 1333 1307 1294 1291 1281 1272 1274 1263 1250 1236 1226 1212 1220 1271 1294 1317 1342 1382 1423 1460 1510 1545 1517 1403 1333 1287 1271 1325 1357 1429 1462 1506 1551 1612 1616 1568 1504 1461 1423 1366 1351 1354 1349 1315 1275 1220 1160 1103 1046 1011 992 978 932 901 885 873 870 856 845 828 817 808 786 775 766 760 750 738 729 715 700 686 666 652 635 618 578 559 548 548 548 548 548 548 548 552 573 595 598 554 550 564 583 623 659 709 757 778 804 826 854 883 918 954 996 1030 1058 1080 1092 1106 1113 1132 1173 1218 1279 1330 1372 1400 1391 1436 1472 1501 1494 1488 1510 1546 1608 1636 1742 1770 1730 1689 1689 1663 1637 1621 1608 1604 1604 1592 1580 1564 1554 1542 1520 1498 1487 1476 1476 1474 1450 1440
1258 1294 1331 1367 1401 1446 1482 1518 1549 1515 1531 1553 1589 1630 1643 1555 1498 1464 1456 1488 1502 1515 1532 1553 1618 1702 1777 1813 1711 1597 1499 1433 1357 1291 1244 1194 1173 1173 1173 1173 1173 1218 1285 1326 1393 1433 1473 1497 1486 1484 1509 1523 1563 1594 1610 1629 1633 1652 1639 1579 1524 1471 1460 1470 1512 1555 1500 1419 1366 1323 1272 1224 1148 1082 1035 995 941 908 876 851 833 813 791 755 720 694 671 667 655 642 637 635 641 634 624 600 596 589 577 556 550 549 550 552 565 576 573 562 552 546 546 546 546 556 598 607 625 655 688 705 706 697 661 665 702 703 702 706 700 680 679 699 701 701 701 706 716 732 757 797 843 863 888 926 978 1018 1043 1078 1097 1127 1111 1074 1054 1108 1146 1179 1207 1209 1210 1217 1221 1215 1206 1194 1184 1211 1191 1167 1161 1155 1155 1148 1149 1154 1166 1175 1193 1220 1250 1279 1294 1318 1346 1381 1410 1422 1474 1547 1604 1666 1665 1671 1670 1640 1612 1607 1625 1627 1641 1644 1625 1556 1508 1463 1456 1462 1411 1355 1339 1340 1353 1347 1317 1304 1312 1344 1432 1483 1533 1540 1522 1537 1546 1580 1615 1584 1559 1535 1531 1572 1611 1610 1587 1567 1551 1535 1498 1472 1438 1398 1357 1325 1296 1273 1256 1239 1205 1186 1164 1139 1112 1051 1028 1013 990 974 969 969 971 964 950 932 914 906 898 889 882 880 881 886 892 907 920 936 950 965 984 1006 1025 1059 1092 1132 1152 1167 1189 1220 1243 1277 1310 1328 1351 1348 1373 1391 1420 1450 1471 1507 1559 1577 1600 1629 1617 1562 1498 1475 1462 1446 1459 1476 1497 1543 1578 1632 1656 1581 1536 1500 1464 1415 1346 1310 1283 1264 1241 1185 1128 1070 1030 991 989 1056 1111 1140 1152 1168 1178 1215 1249 1215 1151 1077 1014 961 895 812 767 741 694 641 614 579 579 579 579 579 579 579 579 579 579 579 579 579 579 579 579 591 612 617 627 639 647 664 701 742 770 805 835 861 890 937 983 1043 1101 1178 1233 1298 1372 1395 1430 1495 1565 1608 1587 1591 1603 1608 1616 1602 1620 1587 1534 1471 1428 1398 1355 1306 1266 1237 1198 1158 1122 1111 1109 1124 1154 1187 1211 1225 1227 1243 1260 1273 1298 1329 1356 1381 1399 1421 1450 1493 1528 1553 1537 1489 1446 1426 1439 1444 1416 1356 1338 1282 1231 1188 1149 1123 1100 1079 1054 1036 1042 1044 1033 1004 1003 1029 1052 1064 1085 1100 1130 1165 1209 1245 1286 1339 1369 1407 1441 1487 1494 1452 1412 1381 1362 1335 1303 1263 1234 1202 1172 1146 1123 1114 1107 1132 1178 1217 1242 1286 1334 1372 1410 1466 1517 1580 1532 1513 1460 1416 1376 1343 1332 1339 1340 1318 1299 1292 1277 1262 1246 1234 1216 1237 1299 1318 1344 1358 1388 1441 1490 1547 1586 1542 1418 1344 1309 1306 1353 1400 1440 1492 1523 1561 1614 1585 1539 1485 1433 1382 1330 1303 1299 1308 1257 1227 1192 1133 1077 1019 996 978 954 916 887 868 853 852 852 828 814 802 795 772 763 755 748 741 729 721 711 699 683 667 640 618 597 569 554 548 548 548 548 548 548 548 562 589 610 612 586 568 567 590 631 662 718 755 780 807 831 853 881 918 959 998 1033 1069 1098 1105 1118 1114 1123 1151 1201 1239 1275 1306 1332 1332 1365 1383 1403 1413 1402 1428 1459 1509 1564 1659 1759 1770 1728 1679 1664 1647 1623 1616 1608 1601 1592 1575 1552 1526 1501 1486 1477 1472 1460 1449 1446 1427 1416
1232 1254 1311 1350 1357 1399 1432 1457 1484 1472 1470 1493 1520 1573 1601 1595 1550 1516 1504 1511 1534 1551 1569 1604 1659 1765 1828 1847 1733 1609 1524 1456 1389 1306 1249 1193 1173 1173 1173 1173 1173 1226 1282 1329 1384 1427 1442 1462 1455 1457 1476 1507 1539 1564 1577 1590 1612 1632 1658 1649 1563 1510 1512 1528 1552 1514 1456 1361 1326 1271 1223 1175 1101 1045 1008 967 932 900 871 850 827 794 775 721 695 682 673 665 663 656 640 631 633 618 605 583 582 582 562 556 551 551 551 552 560 580 580 552 552 558 567 559 557 560 604 624 615 628 659 688 703 687 661 681 700 697 693 693 686 670 673 686 693 697 698 708 724 738 766 800 844 869 887 912 957 1000 1055 1093 1135 1159 1137 1102 1059 1110 1145 1182 1222 1238 1243 1237 1262 1257 1255 1253 1239 1253 1240 1199 1192 1179 1176 1165 1159 1155 1157 1169 1186 1206 1229 1252 1276 1292 1314 1339 1374 1409 1439 1523 1579 1614 1629 1607 1629 1646 1656 1648 1652 1673 1687 1682 1627 1567 1522 1485 1473 1489 1446 1352 1339 1339 1345 1354 1348 1346 1344 1380 1480 1541 1600 1636 1592 1620 1667 1670 1679 1627 1663 1630 1617 1613 1601 1554 1540 1523 1506 1494 1447 1433 1408 1369 1338 1306 1283 1257 1238 1217 1188 1158 1141 1115 1081 1022 1011 992 972 972 981 984 982 966 948 929 912 904 896 889 882 881 885 890 897 910 923 940 955 973 989 1010 1030 1056 1086 1101 1104 1120 1140 1190 1210 1247 1276 1299 1315 1322 1345 1361 1388 1422 1439 1468 1492 1540 1578 1571 1607 1647 1587 1528 1526 1498 1486 1484 1511 1568 1603 1662 1636 1583 1520 1477 1435 1391 1341 1336 1315 1288 1243 1183 1122 1062 1025 993 1008 1069 1119 1147 1163 1188 1204 1240 1285 1252 1168 1109 1040 981 912 853 810 786 732 673 665 627 579 579 579 579 579 579 579 579 579 579 579 579 579 579 579 589 610 616 627 632 641 663 696 730 765 795 826 854 882 914 953 1003 1051 1115 1187 1257 1333 1333 1396 1472 1533 1573 1545 1547 1559 1564 1576 1581 1613 1607 1551 1493 1445 1406 1369 1322 1284 1247 1204 1167 1132 1121 1115 1120 1141 1183 1210 1242 1255 1253 1252 1265 1280 1308 1340 1367 1384 1404 1428 1465 1507 1536 1543 1497 1452 1454 1506 1490 1438 1394 1349 1295 1247 1203 1161 1128 1107 1084 1061 1046 1050 1048 1039 1018 1005 1011 1039 1053 1068 1090 1114 1147 1188 1226 1279 1345 1381 1419 1455 1522 1529 1496 1450 1423 1417 1365 1328 1292 1263 1226 1195 1162 1136 1127 1115 1122 1164 1203 1225 1268 1320 1363 1402 1438 1492 1546 1555 1541 1499 1448 1412 1365 1371 1390 1402 1361 1329 1317 1298 1280 1263 1245 1246 1289 1331 1351 1354 1391 1427 1480 1524 1572 1620 1564 1455 1367 1344 1351 1402 1445 1480 1526 1559 1592 1596 1544 1484 1449 1411 1361 1303 1260 1225 1236 1223 1152 1132 1085 1046 1013 981 963 930 901 875 856 841 835 835 819 805 790 777 760 749 742 735 727 719 711 704 690 677 650 625 601 568 556 548 548 548 548 548 548 548 548 571 602 615 616 613 578 569 598 641 673 719 749 773 799 821 844 870 901 932 973 1010 1052 1090 1131 1159 1134 1126 1141 1169 1200 1237 1266 1289 1305 1334 1348 1373 1385 1416 1439 1478 1520 1583 1659 1730 1722 1696 1677 1671 1661 1643 1629 1630 1621 1597 1570 1523 1495 1481 1472 1465 1462 1453 1438 1431 1422 1401
1231 1241 1272 1307 1316 1351 1378 1404 1428 1435 1435 1457 1466 1500 1555 1580 1618 1578 1551 1540 1597 1620 1645 1672 1721 1790 1893 1850 1745 1641 1566 1483 1426 1356 1266 1207 1173 1173 1173 1173 1173 1204 1264 1307 1350 1395 1415 1426 1432 1439 1457 1500 1526 1544 1553 1565 1591 1626 1650 1687 1653 1592 1598 1562 1530 1474 1415 1345 1284 1236 1191 1139 1065 1020 990 944 914 891 857 838 799 757 726 687 678 673 667 665 674 669 659 649 627 613 593 578 576 576 561 555 553 553 552 553 556 576 569 552 566 588 596 592 603 608 628 650 640 631 639 667 680 660 638 654 681 671 673 672 666 668 669 673 683 696 703 737 749 788 810 828 867 892 917 931 962 1023 1068 1115 1173 1184 1144 1113 1076 1100 1128 1168 1217 1245 1291 1299 1310 1324 1321 1332 1325 1326 1291 1249 1218 1200 1190 1183 1172 1163 1157 1166 1181 1200 1216 1232 1258 1273 1294 1316 1340 1375 1398 1471 1537 1565 1576 1532 1547 1582 1606 1625 1600 1623 1646 1676 1651 1571 1527 1493 1488 1505 1427 1353 1343 1339 1339 1367 1380 1418 1437 1466 1503 1551 1599 1645 1674 1697 1717 1767 1748 1716 1672 1629 1593 1569 1556 1520 1495 1477 1457 1443 1400 1381 1351 1325 1306 1291 1253 1227 1207 1188 1155 1119 1085 1061 1045 1019 1000 983 977 983 987 995 985 971 947 928 912 904 897 889 884 882 886 894 901 912 930 947 961 977 993 1003 1020 1041 1073 1095 1117 1129 1120 1153 1186 1206 1240 1270 1291 1298 1309 1329 1349 1382 1385 1414 1445 1488 1511 1537 1559 1604 1640 1600 1583 1576 1551 1547 1561 1629 1677 1667 1598 1553 1488 1452 1408 1373 1355 1380 1362 1309 1256 1193 1138 1078 1033 1006 1003 1076 1117 1147 1170 1191 1221 1257 1306 1285 1187 1118 1051 989 930 867 850 803 759 712 683 651 587 579 579 579 579 579 579 579 579 579 579 579 579 579 579 581 600 611 628 635 640 657 679 712 756 785 825 852 879 908 947 986 1038 1093 1165 1226 1268 1338 1407 1463 1501 1518 1517 1510 1513 1528 1550 1587 1623 1644 1601 1531 1484 1449 1398 1345 1298 1261 1222 1182 1149 1124 1120 1119 1136 1179 1209 1244 1264 1276 1269 1267 1272 1294 1331 1362 1373 1394 1415 1453 1494 1537 1555 1512 1499 1507 1550 1532 1482 1431 1380 1336 1280 1230 1175 1135 1112 1092 1068 1061 1059 1054 1044 1030 1014 1013 1029 1047 1062 1086 1112 1147 1195 1239 1295 1352 1405 1442 1487 1511 1534 1530 1498 1463 1456 1426 1374 1336 1294 1262 1226 1189 1157 1136 1129 1117 1133 1178 1212 1248 1290 1337 1378 1411 1453 1501 1546 1562 1534 1488 1442 1402 1408 1452 1452 1405 1356 1329 1319 1298 1276 1256 1303 1345 1377 1391 1387 1436 1464 1503 1551 1606 1647 1583 1507 1429 1410 1410 1449 1481 1508 1560 1595 1610 1578 1533 1456 1414 1382 1342 1292 1232 1182 1183 1164 1091 1075 1042 1010 989 955 930 903 883 865 839 827 819 820 809 793 775 760 750 737 732 726 719 708 701 695 683 669 637 612 573 548 551 548 548 548 548 548 548 548 562 585 606 619 622 610 569 582 621 654 687 723 757 778 805 827 848 872 897 921 956 989 1033 1077 1128 1163 1205 1189 1162 1161 1184 1214 1240 1273 1294 1327 1363 1393 1408 1480 1523 1552 1572 1600 1709 1736 1710 1693 1686 1692 1687 1676 1661 1636 1613 1571 1538 1505 1469 1466 1465 1454 1449 1434 1420 1409 1398 1372
1238 1238 1255 1281 1304 1316 1344 1369 1395 1430 1413 1430 1442 1463 1483 1504 1586 1643 1645 1634 1686 1710 1726 1777 1800 1840 1926 1836 1753 1674 1585 1505 1432 1363 1267 1202 1173 1173 1173 1173 1173 1194 1240 1283 1315 1343 1371 1373 1391 1429 1446 1479 1509 1530 1543 1554 1581 1629 1656 1684 1678 1653 1584 1527 1477 1419 1364 1308 1241 1199 1159 1112 1055 1004 965 921 893 870 832 800 762 730 711 693 704 708 696 682 681 686 676 653 616 598 580 578 572 568 562 556 553 553 553 552 553 560 558 552 571 579 592 616 639 646 643 651 647 636 645 660 598 582 582 582 598 636 651 666 666 668 684 697 693 720 739 769 783 816 866 875 888 912 945 961 987 1035 1094 1147 1200 1200 1152 1120 1093 1107 1126 1169 1223 1251 1309 1358 1376 1410 1405 1408 1396 1356 1329 1279 1243 1220 1208 1202 1189 1177 1166 1166 1182 1198 1210 1218 1241 1249 1274 1296 1315 1345 1389 1448 1499 1508 1504 1467 1482 1511 1539 1561 1574 1566 1585 1616 1654 1624 1561 1521 1511 1526 1450 1375 1374 1349 1348 1375 1412 1428 1453 1484 1507 1541 1599 1647 1682 1705 1733 1742 1713 1674 1634 1578 1549 1527 1509 1477 1445 1430 1415 1401 1389 1336 1322 1304 1284 1263 1225 1200 1182 1161 1139 1068 1049 1037 1023 1006 999 995 995 997 1000 1004 989 971 947 929 912 904 897 891 886 882 887 895 903 912 928 945 960 973 988 1007 1030 1055 1080 1109 1145 1153 1151 1147 1170 1186 1213 1241 1269 1284 1293 1313 1330 1352 1372 1367 1390 1414 1447 1489 1496 1545 1559 1565 1537 1506 1536 1588 1627 1663 1712 1638 1571 1527 1484 1443 1411 1398 1392 1408 1381 1325 1261 1194 1129 1074 1039 1010 1014 1075 1119 1148 1176 1202 1232 1275 1329 1307 1231 1166 1091 1029 968 914 893 856 814 748 696 653 603 579 579 579 579 579 579 579 579 579 579 579 579 579 580 579 595 612 629 645 648 658 671 703 743 780 812 840 867 893 918 961 1012 1049 1112 1180 1265 1337 1367 1392 1416 1446 1462 1458 1488 1531 1585 1622 1664 1675 1616 1555 1516 1472 1411 1354 1305 1264 1221 1186 1153 1126 1123 1124 1149 1175 1201 1230 1261 1282 1302 1287 1297 1288 1308 1347 1369 1387 1407 1441 1481 1534 1571 1556 1547 1550 1561 1530 1486 1439 1393 1352 1287 1230 1174 1135 1114 1092 1078 1066 1062 1061 1052 1039 1023 1015 1023 1036 1053 1072 1094 1128 1172 1221 1275 1317 1366 1414 1465 1498 1505 1550 1547 1510 1506 1473 1418 1362 1314 1284 1249 1209 1171 1149 1141 1128 1121 1162 1196 1229 1267 1314 1356 1392 1426 1469 1509 1561 1563 1549 1510 1471 1453 1510 1504 1462 1411 1366 1354 1321 1297 1285 1329 1399 1448 1450 1438 1480 1510 1556 1605 1648 1670 1599 1538 1493 1465 1471 1499 1535 1555 1614 1649 1613 1573 1526 1446 1375 1338 1305 1265 1193 1146 1116 1112 1080 1036 1013 993 971 938 907 887 870 847 825 816 807 804 797 781 763 751 741 727 720 715 708 702 687 679 667 651 629 574 547 548 548 548 548 548 548 548 548 559 579 598 613 624 619 598 569 591 631 657 688 721 755 773 797 826 844 870 892 914 941 968 1007 1054 1102 1147 1173 1230 1227 1203 1214 1236 1257 1291 1309 1402 1446 1483 1477 1510 1616 1634 1659 1683 1761 1742 1711 1697 1700 1733 1734 1702 1674 1626 1567 1533 1506 1487 1464 1459 1459 1449 1435 1419 1405 1388 1372 1359
1246 1244 1248 1260 1278 1288 1312 1333 1365 1398 1391 1423 1446 1456 1463 1482 1518 1572 1636 1687 1727 1786 1834 1859 1873 1899 1929 1839 1760 1693 1618 1532 1448 1387 1303 1219 1174 1173 1173 1173 1173 1194 1232 1256 1285 1309 1336 1352 1380 1418 1460 1488 1507 1519 1541 1561 1597 1641 1655 1656 1626 1601 1577 1493 1430 1377 1325 1266 1193 1156 1122 1072 1032 990 936 889 853 830 784 761 743 726 701 703 751 763 743 697 697 686 652 623 605 594 578 579 570 563 559 555 554 555 555 555 556 553 553 553 568 575 579 609 632 633 639 605 620 611 608 594 580 586 606 612 582 614 661 670 692 678 689 713 718 736 768 792 817 840 888 905 904 964 1005 1020 1041 1081 1143 1197 1237 1217 1165 1131 1107 1105 1123 1158 1219 1250 1305 1352 1440 1512 1489 1484 1460 1407 1366 1306 1261 1237 1224 1211 1199 1186 1170 1170 1183 1196 1208 1214 1226 1239 1250 1276 1293 1312 1332 1398 1453 1466 1460 1456 1457 1470 1488 1507 1511 1501 1517 1542 1583 1621 1614 1571 1580 1529 1443 1391 1381 1365 1362 1381 1424 1443 1454 1471 1500 1526 1578 1632 1667 1686 1695 1709 1668 1637 1591 1539 1505 1480 1462 1444 1402 1383 1368 1351 1336 1313 1296 1278 1260 1235 1197 1177 1155 1128 1092 1049 1036 1019 1005 1000 1007 1012 1019 1019 1015 1014 996 976 945 926 910 903 897 891 886 883 889 899 907 916 935 947 963 975 992 1009 1031 1056 1085 1123 1156 1171 1178 1175 1171 1185 1190 1209 1229 1258 1270 1292 1312 1326 1340 1337 1354 1382 1411 1442 1459 1481 1475 1468 1465 1423 1442 1486 1571 1638 1662 1638 1565 1523 1484 1453 1425 1420 1419 1420 1387 1346 1282 1213 1150 1091 1057 1036 1017 1060 1121 1148 1177 1211 1245 1294 1360 1321 1239 1173 1100 1047 996 944 900 860 815 750 695 663 636 584 579 579 579 579 579 579 579 579 579 579 579 579 579 584 597 606 628 654 669 667 680 703 737 778 810 837 867 892 918 956 1000 1040 1098 1179 1245 1316 1303 1307 1335 1372 1399 1420 1485 1533 1597 1650 1711 1723 1650 1589 1538 1488 1429 1378 1319 1265 1221 1185 1157 1131 1123 1131 1162 1184 1204 1232 1261 1295 1323 1331 1361 1355 1356 1377 1387 1424 1435 1453 1479 1523 1578 1610 1600 1597 1563 1513 1469 1430 1401 1338 1291 1238 1185 1139 1127 1094 1086 1076 1070 1067 1059 1043 1030 1023 1025 1033 1049 1069 1086 1117 1158 1203 1253 1274 1316 1359 1401 1442 1474 1535 1580 1573 1549 1504 1446 1390 1346 1317 1287 1247 1203 1172 1157 1148 1138 1138 1172 1212 1250 1291 1339 1382 1408 1444 1479 1520 1555 1551 1554 1541 1526 1532 1531 1493 1450 1407 1380 1350 1329 1342 1389 1470 1526 1522 1498 1545 1581 1610 1649 1690 1671 1621 1561 1513 1481 1471 1496 1538 1572 1628 1664 1610 1562 1508 1439 1360 1311 1260 1216 1145 1103 1081 1062 1033 995 982 967 946 907 883 865 849 833 814 806 797 788 788 765 756 744 734 724 711 705 699 691 676 665 651 635 605 547 546 550 548 548 548 548 548 548 560 581 595 609 619 627 613 582 571 620 650 672 696 729 749 771 795 822 844 859 882 903 925 954 977 1014 1063 1110 1132 1183 1246 1276 1260 1343 1355 1390 1384 1464 1579 1584 1577 1592 1670 1697 1726 1756 1790 1748 1716 1711 1732 1768 1732 1670 1611 1574 1538 1523 1502 1494 1470 1462 1451 1443 1432 1408 1394 1376 1364 1363
1264 1260 1261 1266 1273 1293 1298 1312 1335 1362 1387 1423 1445 1455 1469 1480 1501 1528 1559 1617 1698 1748 1845 1924 1964 1934 1844 1808 1749 1679 1609 1525 1447 1391 1315 1227 1176 1173 1173 1173 1173 1194 1237 1266 1286 1301 1324 1352 1385 1423 1461 1490 1508 1522 1556 1593 1626 1645 1618 1604 1579 1538 1512 1444 1376 1321 1265 1227 1154 1125 1092 1052 1023 984 901 866 832 804 781 761 742 727 735 747 753 746 707 699 698 640 614 591 586 580 577 574 567 563 558 556 555 556 556 556 557 557 556 557 567 572 574 576 587 584 581 577 577 577 577 580 618 643 656 664 582 605 671 687 692 688 691 703 736 742 752 775 826 855 905 929 952 1008 1033 1068 1100 1133 1220 1265 1302 1243 1183 1150 1122 1117 1131 1167 1221 1265 1326 1390 1466 1550 1576 1552 1504 1461 1413 1365 1303 1266 1241 1220 1208 1192 1178 1176 1185 1194 1207 1217 1221 1233 1242 1256 1277 1291 1321 1348 1404 1427 1444 1457 1463 1457 1469 1475 1483 1466 1461 1476 1502 1555 1564 1616 1632 1550 1454 1410 1394 1385 1379 1406 1459 1482 1474 1476 1498 1527 1587 1632 1656 1663 1655 1657 1630 1585 1561 1496 1471 1448 1426 1409 1386 1351 1337 1325 1315 1296 1282 1264 1241 1215 1189 1141 1115 1082 1058 1041 1019 1003 1002 1010 1022 1028 1043 1047 1033 1016 995 973 950 929 912 903 897 892 888 886 889 902 909 919 935 952 966 977 992 1006 1037 1063 1094 1141 1171 1187 1196 1196 1193 1193 1191 1199 1211 1229 1250 1271 1295 1309 1319 1324 1331 1346 1367 1396 1407 1433 1439 1424 1416 1402 1406 1424 1471 1563 1615 1646 1566 1522 1489 1476 1451 1448 1454 1420 1360 1311 1257 1209 1151 1105 1072 1044 1026 1054 1111 1142 1167 1205 1240 1292 1356 1372 1278 1192 1156 1108 1048 983 934 885 829 776 716 672 650 614 579 579 579 579 579 579 579 579 579 579 579 579 579 580 605 601 615 639 663 667 687 700 724 759 800 833 863 885 913 940 975 1014 1057 1132 1201 1238 1231 1252 1289 1323 1371 1437 1507 1559 1614 1664 1708 1701 1649 1606 1547 1487 1431 1382 1338 1277 1238 1195 1167 1142 1127 1131 1159 1179 1201 1226 1263 1299 1334 1356 1381 1423 1441 1453 1444 1459 1471 1481 1503 1540 1609 1645 1626 1614 1557 1507 1446 1395 1358 1317 1261 1209 1174 1152 1132 1107 1095 1092 1082 1076 1070 1055 1040 1028 1025 1027 1039 1058 1079 1094 1126 1166 1210 1251 1269 1311 1364 1440 1471 1510 1555 1603 1572 1516 1463 1426 1382 1341 1323 1276 1225 1187 1167 1165 1156 1146 1159 1186 1221 1257 1301 1347 1378 1407 1442 1471 1499 1491 1520 1545 1549 1553 1551 1521 1487 1443 1415 1383 1363 1384 1442 1540 1578 1587 1568 1581 1649 1669 1700 1696 1653 1589 1535 1490 1466 1458 1475 1511 1547 1595 1617 1600 1553 1501 1434 1361 1311 1262 1204 1132 1084 1060 1032 1010 973 959 943 923 900 867 849 834 819 809 797 787 768 768 755 743 735 725 714 699 692 686 677 668 643 626 602 566 542 543 550 550 548 548 548 548 548 573 589 601 614 623 631 617 583 574 617 641 664 685 713 736 761 783 806 831 843 868 890 911 941 960 991 1030 1076 1118 1154 1216 1275 1338 1377 1414 1454 1500 1572 1637 1656 1660 1664 1725 1766 1795 1823 1817 1765 1735 1738 1769 1783 1731 1662 1601 1569 1542 1523 1504 1486 1470 1456 1448 1441 1434 1413 1401 1386 1370 1377
1293 1291 1285 1287 1300 1299 1308 1318 1337 1368 1404 1438 1454 1461 1473 1490 1507 1520 1537 1562 1637 1703 1783 1872 1954 1929 1839 1746 1720 1663 1593 1517 1443 1391 1321 1240 1182 1173 1173 1173 1174 1199 1234 1268 1300 1318 1338 1360 1404 1436 1459 1481 1504 1526 1566 1604 1621 1617 1577 1554 1521 1476 1454 1400 1329 1265 1211 1169 1142 1086 1061 1027 987 942 865 838 801 783 769 764 757 753 769 766 737 710 683 669 651 627 579 573 572 573 572 566 563 562 559 555 556 557 557 557 558 560 561 563 567 571 574 573 575 575 577 577 585 589 599 628 663 666 659 660 593 595 688 712 698 696 694 708 729 750 754 786 831 869 908 941 992 1032 1043 1082 1121 1176 1269 1324 1354 1302 1222 1169 1141 1126 1139 1170 1220 1265 1326 1401 1503 1576 1613 1592 1533 1482 1435 1383 1333 1289 1258 1231 1215 1200 1186 1181 1183 1193 1202 1215 1221 1222 1236 1247 1265 1279 1300 1310 1348 1396 1438 1464 1463 1458 1458 1461 1462 1448 1442 1447 1457 1483 1535 1572 1639 1596 1504 1449 1430 1418 1422 1435 1460 1544 1512 1488 1493 1530 1599 1633 1638 1628 1606 1585 1578 1547 1508 1481 1427 1403 1385 1368 1349 1326 1318 1310 1298 1289 1262 1241 1216 1192 1169 1114 1082 1058 1043 1028 1007 1003 1010 1019 1027 1054 1068 1066 1042 1018 994 970 948 924 910 902 897 892 888 886 895 905 913 924 939 957 973 983 996 1009 1038 1063 1092 1138 1168 1195 1209 1209 1212 1204 1204 1200 1201 1208 1222 1242 1275 1294 1305 1313 1323 1332 1344 1365 1396 1399 1411 1409 1398 1389 1390 1397 1425 1492 1570 1633 1622 1565 1522 1516 1517 1521 1487 1423 1371 1310 1260 1211 1156 1108 1072 1048 1031 1060 1112 1144 1176 1216 1249 1301 1369 1382 1289 1228 1215 1154 1078 1007 963 920 869 819 755 702 672 651 588 579 579 579 579 579 579 579 579 579 579 579 579 580 606 603 617 643 652 663 687 708 727 758 789 827 857 878 905 932 961 995 1033 1090 1147 1167 1194 1226 1274 1328 1387 1448 1496 1535 1579 1630 1675 1671 1634 1602 1550 1493 1429 1381 1337 1287 1243 1200 1168 1147 1133 1135 1160 1182 1201 1229 1266 1307 1353 1376 1410 1455 1491 1506 1501 1500 1513 1519 1534 1561 1629 1648 1629 1618 1570 1513 1447 1394 1340 1293 1232 1204 1190 1161 1138 1118 1111 1102 1091 1084 1075 1062 1044 1033 1029 1028 1032 1049 1069 1084 1110 1151 1184 1219 1252 1302 1355 1412 1446 1469 1507 1540 1566 1545 1516 1477 1437 1393 1357 1307 1257 1208 1182 1179 1169 1161 1155 1171 1200 1238 1280 1322 1353 1376 1406 1433 1448 1449 1468 1506 1533 1565 1574 1542 1502 1454 1422 1402 1400 1432 1477 1557 1608 1631 1636 1639 1704 1735 1701 1658 1618 1559 1500 1467 1432 1431 1445 1474 1514 1554 1569 1557 1521 1462 1406 1329 1285 1243 1194 1130 1070 1033 1005 987 956 935 920 901 886 854 836 821 810 802 787 776 758 752 744 733 723 714 708 693 683 675 665 650 625 600 565 537 529 536 550 552 548 548 549 548 562 581 600 611 623 630 632 622 574 581 613 622 646 669 689 717 735 762 785 812 834 852 877 898 921 940 962 990 1028 1071 1107 1160 1220 1276 1302 1357 1413 1487 1578 1574 1616 1667 1716 1758 1779 1820 1858 1830 1787 1760 1777 1807 1791 1733 1676 1635 1584 1543 1526 1510 1494 1471 1458 1452 1437 1431 1415 1408 1399 1380 1374
1362 1348 1325 1318 1317 1324 1322 1328 1347 1381 1415 1463 1475 1483 1485 1502 1514 1528 1534 1552 1594 1678 1729 1823 1905 1851 1777 1694 1653 1623 1571 1521 1433 1391 1338 1258 1197 1173 1173 1176 1187 1193 1216 1262 1297 1331 1361 1383 1411 1434 1450 1475 1508 1545 1588 1599 1587 1571 1550 1507 1477 1433 1403 1370 1283 1235 1184 1144 1120 1072 1030 979 934 886 843 826 807 799 801 795 774 764 750 729 718 658 645 624 599 584 571 570 570 569 568 566 564 562 559 557 557 559 558 558 559 561 564 568 568 570 573 575 577 592 595 594 622 628 639 663 674 672 660 650 604 609 678 712 721 710 705 720 733 740 757 798 844 888 929 967 1008 1038 1073 1112 1166 1230 1313 1403 1389 1309 1230 1178 1156 1141 1145 1167 1213 1249 1313 1378 1460 1549 1588 1626 1568 1519 1465 1412 1341 1300 1272 1241 1218 1220 1210 1190 1187 1191 1203 1214 1222 1225 1238 1251 1259 1270 1279 1293 1312 1348 1395 1438 1459 1444 1443 1450 1451 1442 1427 1430 1432 1445 1480 1541 1594 1659 1593 1509 1552 1502 1494 1509 1535 1586 1543 1515 1514 1551 1619 1620 1598 1577 1573 1537 1534 1513 1474 1438 1399 1369 1348 1338 1330 1308 1298 1288 1276 1268 1236 1214 1186 1160 1130 1082 1053 1041 1029 1017 1012 1020 1025 1033 1045 1089 1104 1079 1049 1024 996 970 951 928 911 904 897 893 889 888 898 908 918 931 945 961 978 990 1005 1020 1051 1076 1105 1149 1177 1214 1231 1221 1228 1219 1213 1214 1207 1201 1205 1218 1249 1278 1292 1303 1313 1322 1330 1339 1354 1347 1361 1386 1382 1381 1381 1390 1411 1450 1540 1601 1681 1619 1580 1561 1601 1547 1477 1419 1364 1309 1269 1230 1180 1123 1088 1059 1044 1063 1103 1139 1176 1218 1248 1298 1359 1415 1359 1319 1237 1164 1084 1022 981 934 884 833 765 714 689 655 592 579 579 579 579 579 579 579 579 579 579 579 579 585 605 610 609 636 643 660 672 698 718 749 780 806 840 879 906 931 958 983 1019 1053 1099 1154 1192 1271 1324 1371 1413 1451 1472 1503 1540 1582 1625 1627 1627 1591 1548 1507 1451 1395 1343 1296 1254 1220 1184 1158 1144 1138 1151 1170 1193 1214 1261 1307 1362 1403 1431 1475 1508 1540 1548 1541 1584 1589 1600 1621 1648 1657 1629 1593 1544 1499 1442 1397 1347 1295 1253 1243 1208 1171 1146 1124 1130 1122 1105 1093 1083 1070 1056 1041 1033 1031 1029 1032 1063 1081 1104 1138 1164 1191 1237 1281 1330 1364 1412 1419 1462 1492 1513 1530 1512 1499 1474 1428 1380 1349 1299 1248 1210 1188 1180 1173 1164 1157 1180 1210 1247 1285 1324 1338 1365 1385 1396 1410 1428 1459 1509 1560 1594 1557 1514 1470 1432 1418 1440 1474 1539 1583 1649 1668 1697 1723 1734 1706 1666 1628 1570 1512 1469 1438 1414 1402 1404 1429 1465 1508 1543 1533 1496 1436 1379 1317 1283 1245 1187 1128 1053 1013 990 972 949 911 897 880 868 845 824 812 802 793 779 766 752 737 730 708 699 695 692 679 667 657 645 631 600 568 538 524 525 530 548 551 550 550 557 560 577 589 604 617 630 634 638 642 603 574 574 586 620 644 662 689 709 729 753 781 813 836 863 886 910 926 945 972 1003 1046 1085 1128 1169 1224 1284 1330 1402 1454 1501 1489 1551 1626 1671 1714 1701 1754 1801 1830 1817 1807 1811 1847 1819 1767 1722 1667 1588 1550 1550 1538 1526 1497 1465 1468 1436 1426 1417 1406 1403 1385 1356
1402 1435 1387 1357 1343 1339 1351 1364 1376 1416 1454 1476 1508 1505 1498 1508 1520 1541 1546 1556 1564 1619 1664 1759 1852 1846 1744 1665 1613 1572 1536 1490 1425 1368 1323 1252 1194 1173 1182 1186 1206 1218 1221 1248 1282 1320 1357 1382 1401 1421 1443 1475 1514 1546 1577 1566 1548 1531 1510 1457 1425 1379 1334 1308 1249 1193 1153 1122 1094 1036 977 916 885 874 852 826 818 828 835 812 747 729 712 693 659 605 600 591 576 573 570 570 570 570 569 565 564 562 559 558 558 560 560 560 560 562 566 571 570 571 572 576 581 592 599 610 638 641 653 675 678 672 662 647 606 619 683 699 724 721 726 723 737 749 765 802 841 887 930 979 1026 1044 1090 1159 1210 1271 1332 1435 1419 1332 1257 1197 1166 1156 1152 1174 1212 1248 1307 1367 1440 1511 1575 1636 1600 1538 1482 1422 1364 1312 1286 1259 1236 1242 1244 1230 1200 1188 1201 1214 1233 1238 1242 1250 1257 1265 1272 1284 1309 1330 1360 1394 1428 1425 1434 1442 1443 1434 1420 1420 1422 1425 1448 1502 1565 1630 1703 1665 1652 1613 1593 1604 1630 1613 1579 1553 1556 1600 1619 1589 1560 1537 1525 1502 1475 1449 1421 1394 1360 1335 1324 1317 1310 1298 1280 1270 1259 1248 1229 1191 1162 1139 1100 1058 1041 1030 1023 1013 1024 1044 1048 1063 1081 1110 1108 1070 1047 1021 993 967 946 924 910 903 896 893 891 893 899 910 918 931 946 960 974 988 1007 1026 1052 1080 1113 1156 1188 1225 1261 1247 1243 1233 1256 1264 1243 1215 1210 1213 1229 1259 1283 1296 1309 1318 1323 1329 1333 1333 1335 1350 1371 1399 1444 1412 1403 1431 1487 1558 1642 1707 1679 1659 1600 1537 1476 1423 1369 1314 1264 1223 1183 1133 1097 1068 1058 1074 1102 1150 1185 1225 1260 1318 1380 1437 1409 1327 1253 1180 1121 1069 1013 949 899 850 792 747 709 670 617 579 579 579 579 579 579 579 579 579 579 579 579 589 611 606 617 634 639 668 676 692 714 740 779 810 844 871 897 922 947 979 1012 1050 1083 1138 1203 1268 1328 1358 1386 1417 1431 1465 1502 1527 1570 1609 1619 1587 1542 1508 1448 1393 1344 1299 1257 1225 1190 1165 1151 1146 1148 1164 1189 1211 1250 1288 1338 1393 1447 1478 1514 1541 1570 1594 1630 1652 1665 1675 1664 1673 1648 1593 1543 1487 1436 1385 1327 1279 1271 1254 1214 1175 1147 1127 1149 1133 1114 1098 1087 1073 1062 1046 1038 1035 1031 1031 1045 1071 1085 1109 1137 1165 1194 1231 1279 1316 1359 1388 1406 1439 1463 1485 1484 1481 1482 1466 1425 1384 1333 1290 1244 1212 1192 1182 1175 1166 1176 1197 1231 1263 1302 1315 1342 1365 1386 1408 1455 1489 1518 1562 1603 1596 1547 1507 1462 1436 1461 1506 1571 1622 1663 1697 1711 1722 1713 1654 1618 1582 1536 1493 1433 1413 1392 1371 1364 1397 1423 1461 1505 1469 1442 1395 1340 1290 1214 1184 1136 1087 1037 989 968 945 923 892 875 863 855 841 818 805 798 787 771 761 749 738 730 706 690 673 671 672 645 636 626 616 587 549 528 518 522 532 545 550 553 553 564 575 588 598 609 634 642 646 657 660 624 606 584 574 594 619 640 653 666 689 718 748 783 801 837 865 891 913 924 947 974 1017 1060 1089 1127 1179 1244 1271 1332 1377 1414 1468 1533 1574 1605 1636 1666 1685 1710 1763 1834 1853 1862 1890 1830 1775 1733 1649 1562 1556 1561 1554 1540 1509 1478 1467 1441 1429 1423 1410 1397 1393 1380
1524 1492 1488 1454 1424 1380 1391 1409 1444 1515 1518 1518 1529 1521 1517 1521 1558 1577 1564 1568 1574 1595 1648 1723 1824 1848 1757 1679 1621 1573 1524 1469 1418 1361 1315 1246 1193 1181 1202 1211 1226 1239 1248 1263 1297 1309 1344 1377 1403 1425 1449 1488 1527 1560 1544 1520 1502 1488 1469 1423 1388 1344 1283 1249 1217 1152 1119 1092 1054 1011 918 892 877 918 869 809 797 804 782 759 695 676 648 621 600 590 576 574 570 569 568 568 568 569 568 566 563 561 560 559 558 561 560 560 561 564 568 573 574 574 573 575 579 580 603 629 642 653 666 680 682 677 670 658 644 606 643 700 722 726 728 728 742 754 773 814 850 903 946 990 1044 1069 1133 1210 1257 1326 1388 1470 1430 1350 1283 1219 1178 1172 1161 1173 1204 1238 1290 1356 1428 1514 1571 1649 1629 1548 1493 1425 1365 1313 1285 1260 1244 1255 1258 1252 1231 1204 1217 1235 1249 1254 1255 1257 1255 1265 1273 1279 1302 1321 1342 1368 1407 1421 1431 1438 1437 1435 1419 1424 1422 1428 1446 1498 1576 1630 1719 1764 1729 1707 1677 1694 1694 1651 1626 1609 1612 1637 1622 1576 1543 1508 1488 1473 1431 1406 1368 1358 1346 1320 1309 1302 1296 1290 1268 1255 1238 1223 1200 1157 1124 1092 1060 1050 1032 1026 1023 1025 1039 1075 1090 1111 1121 1142 1125 1092 1054 1028 1001 971 947 923 910 901 898 895 895 897 902 913 923 935 947 962 972 992 1009 1032 1057 1090 1127 1174 1220 1256 1312 1327 1294 1277 1287 1354 1304 1274 1241 1229 1226 1232 1252 1286 1300 1312 1317 1322 1325 1329 1333 1339 1393 1481 1467 1467 1442 1440 1486 1555 1621 1722 1732 1656 1584 1525 1465 1412 1362 1312 1273 1235 1194 1153 1114 1080 1064 1075 1098 1140 1181 1222 1264 1319 1383 1436 1414 1328 1257 1198 1128 1066 1015 959 895 846 806 774 725 680 627 579 579 579 579 579 579 579 579 579 579 579 579 579 601 613 622 647 665 665 678 689 708 732 768 802 834 868 895 921 947 977 1012 1054 1110 1134 1190 1254 1283 1314 1355 1395 1421 1450 1482 1508 1538 1590 1634 1616 1568 1518 1464 1400 1357 1317 1278 1239 1196 1174 1159 1154 1154 1163 1185 1211 1242 1279 1331 1380 1453 1495 1521 1546 1572 1601 1639 1649 1661 1669 1674 1668 1642 1592 1545 1488 1447 1398 1355 1323 1305 1270 1231 1192 1159 1145 1168 1149 1125 1107 1090 1074 1061 1051 1043 1040 1034 1031 1033 1059 1069 1094 1119 1146 1179 1205 1245 1286 1320 1357 1363 1387 1407 1437 1448 1443 1460 1472 1445 1402 1362 1324 1286 1247 1232 1206 1189 1182 1175 1186 1210 1237 1267 1307 1333 1367 1397 1433 1488 1521 1549 1578 1613 1627 1584 1537 1494 1478 1530 1580 1618 1629 1626 1654 1673 1653 1646 1614 1557 1515 1483 1459 1386 1370 1351 1317 1335 1341 1378 1408 1436 1441 1374 1348 1310 1250 1177 1128 1094 1052 1009 964 937 918 900 872 855 844 838 829 804 795 787 774 765 749 740 728 713 702 679 666 649 646 626 618 606 592 563 526 518 517 518 526 541 547 556 561 568 578 592 603 615 635 655 669 681 681 655 633 613 578 578 581 601 625 650 657 694 728 762 779 819 852 881 901 915 936 957 993 1033 1057 1098 1140 1196 1246 1269 1316 1385 1458 1478 1497 1523 1570 1619 1603 1627 1690 1772 1800 1824 1856 1866 1820 1744 1663 1590 1557 1568 1570 1550 1511 1488 1481 1465 1447 1431 1425 1409 1399 1391
1573 1595 1592 1555 1530 1459 1434 1468 1524 1640 1596 1548 1549 1542 1538 1555 1627 1598 1596 1582 1590 1617 1653 1742 1820 1774 1733 1681 1607 1561 1493 1429 1394 1343 1298 1239 1195 1195 1216 1233 1244 1270 1288 1294 1347 1345 1336 1360 1390 1427 1456 1505 1538 1539 1502 1468 1452 1438 1420 1399 1333 1281 1227 1190 1168 1110 1072 1037 1002 952 891 875 861 869 843 779 742 732 716 686 667 593 584 580 575 576 572 571 569 569 568 568 569 568 568 566 563 562 560 560 559 561 561 561 563 563 568 573 576 578 576 575 577 587 607 629 643 660 675 689 687 679 672 661 637 606 651 686 722 736 733 734 746 757 776 807 841 893 954 1015 1058 1098 1168 1248 1319 1374 1471 1503 1442 1378 1311 1250 1200 1189 1174 1183 1216 1243 1295 1361 1433 1542 1585 1681 1650 1582 1518 1447 1386 1335 1294 1267 1247 1259 1265 1269 1276 1260 1260 1293 1280 1275 1271 1274 1263 1265 1276 1283 1302 1319 1343 1362 1395 1410 1420 1431 1429 1419 1413 1446 1439 1436 1449 1483 1580 1640 1686 1775 1816 1770 1768 1771 1720 1676 1664 1665 1659 1637 1607 1564 1537 1506 1473 1433 1372 1358 1341 1333 1328 1310 1292 1287 1287 1281 1260 1244 1223 1197 1181 1136 1103 1075 1054 1040 1034 1036 1038 1046 1067 1093 1121 1147 1171 1163 1155 1101 1059 1031 999 964 941 923 909 901 899 898 898 901 903 914 923 935 947 959 974 986 1004 1025 1052 1099 1142 1185 1236 1278 1329 1383 1387 1395 1411 1400 1344 1313 1286 1259 1243 1229 1239 1260 1284 1299 1313 1318 1324 1329 1337 1358 1406 1459 1535 1563 1511 1498 1516 1557 1611 1701 1717 1645 1581 1523 1465 1416 1364 1316 1273 1236 1195 1154 1116 1086 1075 1085 1106 1145 1178 1222 1271 1326 1375 1444 1440 1356 1285 1231 1169 1101 1036 976 921 870 832 795 742 699 637 584 579 579 579 579 579 579 579 579 579 579 579 579 588 611 627 644 671 666 670 684 700 724 757 796 823 856 884 908 935 963 989 1021 1064 1135 1182 1219 1281 1336 1379 1421 1444 1484 1500 1520 1554 1613 1652 1613 1564 1501 1452 1395 1357 1318 1277 1239 1211 1184 1174 1166 1157 1166 1186 1206 1231 1264 1302 1346 1402 1468 1501 1527 1551 1577 1609 1604 1614 1624 1631 1648 1622 1582 1533 1489 1448 1412 1386 1363 1319 1266 1228 1192 1157 1170 1181 1158 1131 1114 1096 1081 1065 1058 1051 1045 1041 1034 1032 1039 1059 1073 1094 1122 1147 1178 1202 1238 1274 1308 1325 1348 1376 1393 1410 1409 1436 1471 1459 1434 1395 1358 1325 1285 1262 1229 1206 1194 1187 1185 1201 1227 1252 1294 1334 1374 1414 1455 1497 1556 1579 1594 1617 1653 1660 1627 1581 1555 1608 1613 1603 1597 1601 1586 1600 1593 1578 1594 1549 1487 1447 1406 1364 1321 1298 1269 1287 1296 1331 1368 1400 1391 1299 1255 1232 1204 1139 1089 1056 1023 988 933 911 896 881 863 836 828 823 818 803 783 776 763 755 739 732 717 699 688 670 649 637 624 613 591 575 559 533 517 517 519 524 531 542 549 562 569 578 586 601 614 624 643 667 687 704 703 704 671 636 617 593 595 581 602 619 628 657 696 727 755 788 828 854 884 902 918 936 958 994 1020 1052 1106 1152 1196 1231 1290 1348 1406 1408 1434 1501 1561 1574 1545 1617 1690 1732 1729 1744 1775 1833 1831 1755 1664 1592 1570 1572 1583 1591 1561 1526 1526 1506 1490 1470 1445 1455 1441 1420
1509 1549 1552 1580 1584 1541 1490 1509 1605 1698 1621 1568 1561 1561 1572 1635 1667 1623 1617 1605 1618 1644 1678 1727 1755 1728 1676 1652 1588 1506 1453 1399 1364 1333 1269 1221 1201 1205 1228 1245 1266 1296 1326 1348 1416 1412 1391 1388 1397 1426 1478 1511 1515 1497 1485 1431 1414 1397 1380 1356 1288 1244 1193 1161 1116 1044 1008 980 955 918 879 826 799 782 766 735 681 663 646 623 601 576 576 575 574 574 572 569 569 568 568 568 568 570 568 563 564 562 561 560 561 561 562 564 565 565 569 573 579 578 578 577 579 607 616 628 633 660 681 696 693 685 671 667 646 606 653 681 703 731 735 741 750 764 787 817 854 903 959 1025 1093 1143 1189 1267 1339 1410 1484 1538 1508 1449 1362 1282 1232 1209 1184 1186 1214 1245 1286 1365 1462 1558 1634 1696 1661 1590 1517 1441 1383 1333 1295 1267 1254 1262 1274 1284 1308 1352 1362 1368 1328 1310 1290 1284 1268 1267 1273 1279 1294 1309 1329 1345 1376 1401 1409 1414 1413 1397 1410 1440 1453 1454 1458 1509 1593 1649 1683 1751 1816 1759 1733 1714 1696 1671 1631 1600 1588 1594 1584 1563 1536 1483 1434 1384 1347 1333 1323 1319 1316 1296 1263 1262 1256 1254 1227 1214 1196 1170 1151 1117 1081 1067 1052 1036 1040 1052 1060 1075 1090 1131 1159 1187 1235 1234 1193 1120 1066 1034 1003 969 942 919 907 902 901 900 902 904 909 916 926 941 950 961 976 987 1007 1025 1053 1084 1129 1166 1208 1259 1307 1343 1405 1459 1482 1434 1411 1373 1342 1315 1295 1250 1235 1250 1274 1297 1314 1320 1327 1334 1343 1378 1406 1436 1510 1561 1593 1586 1592 1598 1674 1706 1705 1641 1585 1527 1469 1423 1374 1327 1277 1231 1195 1158 1124 1101 1088 1096 1110 1140 1183 1243 1299 1349 1399 1486 1469 1391 1320 1262 1204 1123 1054 988 927 887 840 799 757 716 673 623 579 579 579 579 579 579 579 579 579 579 579 579 598 611 623 634 652 669 670 683 698 722 753 790 821 852 877 902 931 957 982 1016 1048 1103 1169 1231 1290 1342 1376 1445 1496 1514 1550 1556 1589 1635 1650 1600 1546 1489 1453 1400 1366 1329 1288 1254 1225 1198 1188 1179 1170 1175 1190 1208 1229 1256 1291 1336 1379 1428 1457 1491 1518 1542 1571 1563 1572 1577 1584 1601 1605 1585 1539 1501 1468 1444 1419 1386 1326 1273 1234 1197 1179 1193 1204 1176 1145 1124 1105 1086 1067 1063 1057 1049 1048 1042 1035 1033 1043 1060 1084 1107 1129 1150 1174 1200 1238 1272 1285 1312 1344 1366 1380 1404 1422 1454 1495 1474 1461 1412 1365 1330 1281 1258 1229 1211 1202 1190 1192 1219 1244 1280 1326 1380 1422 1469 1512 1585 1601 1613 1633 1665 1695 1671 1644 1628 1625 1596 1572 1546 1562 1530 1532 1518 1501 1529 1501 1506 1468 1422 1362 1307 1257 1224 1232 1255 1281 1313 1350 1364 1269 1209 1170 1142 1107 1055 1020 989 954 914 889 876 856 840 817 812 806 800 790 772 762 751 743 732 705 694 683 673 655 632 621 612 593 558 548 533 519 517 520 523 531 536 545 549 564 576 580 594 607 619 631 646 676 699 722 728 729 700 667 646 627 623 591 596 606 617 630 664 697 736 767 802 832 866 890 899 920 942 973 994 1018 1064 1102 1146 1187 1234 1284 1326 1362 1396 1450 1481 1491 1522 1588 1638 1668 1690 1649 1706 1794 1840 1782 1690 1617 1585 1580 1606 1616 1623 1596 1553 1565 1550 1519 1479 1483 1468 1452
